-2.7386, 2.11275, -4.98493, 98, 120, 144
-2.41388, 2.4029, -5.66452, 167, 194, 203
-2.62292, 1.97841, -4.61934, 53, 122, 84
-15.1668, 3.49297, -43.2601, 158, 86, 100
13.8913, 0.215962, 18.1521, 114, 119, 128
-1.75458, -1.53512, 21.3767, 70, 74, 86
2.07074, 1.07484, -2.78829, 162, 138, 142
-2.7507, 2.08032, -4.90149, 155, 209, 180
1.65332, 1.23642, 3.69969, 141, 143, 151
1.68905, 1.61, -4.17634, 167, 127, 140
1.49944, 1.24231, 3.75497, 72, 75, 78
-15.3999, 3.52407, -43.8898, 147, 78, 89
2.07918, 1.06038, -2.78273, 88, 64, 79
-3.34364, 2.40536, -5.60817, 223, 255, 255
-2.33399, 1.76833, -4.12691, 105, 169, 132
1.67638, 1.25175, 3.68302, 76, 71, 81
2.21974, 0.704051, 5.12856, 19, 41, 65
2.09065, 1.06543, -2.74322, 174, 151, 163
5.68952, 3.27244, -30.2108, 69, 63, 69
-15.3146, 3.22057, -44.2483, 192, 182, 180
1.37485, 1.49227, 3.77681, 89, 85, 88
-8.03353, 0.399102, 26.3402, 79, 31, 0
0.311313, 2.22804, -5.62646, 150, 161, 184
-2.83535, 1.9707, -4.64519, 180, 210, 233
4.28351, 1.64168, -8.93411, 32, 34, 44
-2.83289, 1.86332, -4.34121, 164, 224, 182
1.41172, 1.18627, 3.78238, 14, 41, 92
1.60966, 1.49782, 3.61325, 164, 158, 162
1.46696, 1.1854, 3.79788, 159, 176, 188
2.08386, 1.03718, -2.65196, 97, 80, 94
-2.73864, 1.74667, -4.01667, 179, 242, 181
1.41769, 1.03282, 3.82537, 161, 138, 159
1.70929, 1.33123, 3.62297, 83, 75, 74
-2.82696, 1.81851, -4.14153, 118, 151, 109
6.29439, 2.36716, -15.9432, 89, 94, 101
-14.9265, 2.90192, -43.6939, 85, 46, 44
2.96468, 2.189, -18.4172, 81, 79, 93
1.69431, 1.60037, 3.57088, 169, 169, 163
2.19227, 0.578349, 5.2007, 109, 125, 135
4.48476, 0.965475, -8.74281, 14, 17, 16
1.92185, 1.03113, -2.77215, 192, 177, 178
2.0169, 1.06354, -2.80638, 203, 145, 102
2.6299, -0.298171, 8.92762, 197, 200, 201
1.67147, 1.24548, 3.67906, 76, 74, 81
-8.17918, 0.315514, 27.063, 155, 101, 52
-2.71933, 2.09534, -4.89986, 76, 110, 116
4.80197, 4.31995, -40.4362, 198, 203, 208
3.93066, 2.73592, -24.0504, 111, 111, 115
-1.59797, -1.56989, 21.6513, 89, 96, 102
-7.34255, 0.812071, 19.6216, 77, 22, 0
2.04626, 1.10914, -2.71028, 84, 72, 70
5.17912, 8.58522, -83.7544, 199, 211, 213
2.07347, 1.08086, -2.77192, 95, 79, 86
1.7233, 1.35323, 3.63859, 65, 58, 67
-2.76643, 2.09766, -4.89787, 110, 180, 133
2.06992, 1.01681, -2.62073, 197, 175, 177
-2.76019, 2.12078, -4.95226, 152, 191, 182
-2.86967, 2.03272, -4.78929, 185, 207, 221
1.48624, 1.24793, 3.75029, 92, 91, 95
-2.4435, 2.48296, -5.80189, 206, 238, 255
-1.64482, 2.60141, -6.19879, 217, 228, 239
2.35237, 0.479277, 5.28171, 20, 25, 32
2.06786, 1.07633, -2.78475, 167, 142, 150
2.01732, 1.06554, -2.80783, 203, 145, 102
1.47622, 1.38857, 3.73996, 144, 138, 140
2.97402, 2.19923, -18.504, 89, 87, 101
-1.59726, -1.54176, 21.2618, 84, 91, 97
2.09282, 1.04486, -2.66325, 112, 96, 105
1.30564, 1.22638, 3.90453, 193, 165, 176
-2.46007, 1.88767, -4.41634, 164, 208, 193
2.09375, 1.03946, -2.72482, 107, 95, 95
0.237669, 2.2627, -5.77706, 149, 162, 171
1.6706, 1.24408, 3.6517, 71, 70, 81
4.68606, 2.31407, -13.8454, 48, 46, 62
1.22402, 1.42541, 3.90515, 85, 81, 86
1.1541, 1.50384, 3.93833, 82, 73, 80
7.52178, -1.72773, -11.9795, 75, 70, 78
2.07802, 1.06434, -2.77789, 79, 55, 74
2.09213, 1.04352, -2.66149, 112, 96, 105
4.33095, 7.92107, -77.0471, 186, 196, 203
-2.86038, 2.03422, -4.68617, 174, 197, 230
6.28418, 2.36325, -15.9369, 89, 94, 101
3.86087, 2.9769, -25.7028, 85, 90, 99
1.56318, 1.21818, 3.72288, 113, 120, 128
1.63431, 1.52283, 3.66045, 164, 160, 163
1.44136, 1.538, 3.73733, 117, 107, 105
-0.755966, -0.945626, 17.0727, 102, 116, 122
0.247705, 2.33679, -5.91876, 74, 82, 97
2.01622, 1.06669, -2.80539, 205, 145, 101
-15.5761, 2.94255, -45.1348, 205, 173, 169
1.43493, 1.25273, 3.79042, 11, 36, 72
-4.65043, 2.93689, -6.81275, 129, 187, 144
-2.79495, 2.01076, -4.70824, 160, 197, 214
4.33243, 1.25192, -8.27333, 70, 76, 87
4.3067, 1.24613, -8.23827, 79, 84, 93
1.72088, 1.62461, 3.61247, 181, 180, 180
15.3642, 5.34909, 17.5019, 86, 101, 116
1.23137, 1.22933, 3.9147, 22, 29, 53
1.23481, 1.09072, 3.9467, 88, 106, 131
-2.80688, 1.93626, -4.54759, 98, 119, 150
1.63469, 1.38823, 3.70275, 156, 152, 155
2.05133, 1.09674, -2.6784, 146, 116, 100
4.08089, 1.92444, -8.3841, 41, 46, 51
3.51112, -0.960718, 13.5363, 112, 114, 120
-2.79422, 1.96042, -4.61551, 116, 148, 168
2.06792, 1.09517, -2.71816, 189, 174, 173
-1.82506, -1.5504, 22.2355, 91, 96, 105
2.11513, 0.780337, -2.41712, 177, 172, 168
2.38308, 0.288026, -2.75409, 42, 48, 61
4.07512, 2.04996, -8.32369, 99, 102, 103
-0.46936, 2.26381, 5.92719, 132, 98, 76
2.09176, 1.04663, -2.74455, 107, 81, 96
13.7971, 0.169856, 17.9549, 112, 118, 131
2.05861, 1.08531, -2.79271, 111, 88, 98
1.42947, 1.84219, 3.794, 166, 166, 160
-7.66767, 0.279996, 25.5284, 160, 109, 39
-2.84998, 2.03233, -4.7864, 115, 142, 155
11.2624, 0.267184, -23.6387, 166, 102, 14
1.42749, 1.22306, 3.79058, 56, 87, 124
23.8333, 2.02579, 28.7174, 60, 72, 78
2.07061, 1.01975, -2.61313, 108, 78, 88
-2.8218, 1.77907, -4.16443, 197, 255, 207
1.42228, 1.24121, 3.77936, 9, 42, 87
1.44281, 1.02045, 3.85033, 164, 147, 163
2.0376, 1.05362, -2.69625, 182, 163, 161
22.2189, -0.868656, -43.0399, 109, 60, 0
-2.87143, 2.04529, -4.8123, 155, 187, 207
2.12368, 0.791531, -2.41514, 90, 71, 69
1.30356, 1.40313, 3.8414, 87, 81, 85
-2.79977, 2.01246, -4.72215, 204, 244, 255
2.07828, 1.01641, -2.64474, 103, 84, 101
1.58321, 1.22754, 3.72675, 88, 95, 103
-1.78298, -1.54876, 21.7256, 70, 74, 86
1.22649, 1.54053, 3.8596, 123, 114, 117
1.46553, 1.24651, 3.76543, 149, 151, 157
2.07697, 1.09358, -2.71738, 151, 131, 134
35.3001, -115.991, 1277.59, 107, 113, 115
2.09696, 1.03918, -2.72984, 106, 89, 89
-2.62308, 1.97772, -4.61965, 53, 122, 84
10.9051, -2.13578, -19.1433, 68, 65, 49
1.23551, 1.53341, 3.87305, 185, 173, 173
0.285836, 2.31262, -5.82949, 181, 190, 202
-1.10099, 0.395147, 9.43604, 69, 21, 0
1.27868, 1.23423, 3.91393, 165, 163, 174
2.08397, 1.02845, -2.67647, 106, 80, 109
-2.84855, 1.80029, -4.20445, 191, 255, 204
-2.87365, 2.07215, -4.79591, 108, 138, 168
0.29893, 2.26715, -5.75957, 224, 234, 252
4.19045, 3.00552, -26.311, 89, 92, 95
2.38143, 0.296169, -2.75138, 98, 103, 110
1.702, 1.24118, 3.62581, 91, 93, 101
1.25052, 1.17989, 3.91907, 18, 55, 87
0.00881267, 2.36034, -5.96846, 69, 75, 88
2.08484, 1.05807, -2.74947, 174, 155, 153
4.05953, -0.907098, 14.8017, 122, 118, 109
2.08861, 1.04126, -2.70646, 176, 166, 166
2.12377, 0.787105, -2.43513, 140, 125, 115
1.24358, 1.48746, 3.86224, 114, 108, 114
0.0141178, 2.07265, 4.97174, 186, 153, 126
-14.4782, 3.1024, -42.116, 210, 160, 164
6.4109, 2.31885, -16.726, 10, 12, 18
1.54683, 1.37921, 3.69658, 132, 128, 131
1.23394, 1.26687, 3.93231, 77, 79, 87
1.26206, 1.00737, 3.92931, 172, 145, 167
-1.50702, -1.45771, 21.013, 108, 113, 120
-19.6815, 3.06336, -56.8752, 190, 151, 104
0.247108, 0.260803, 18.849, 43, 18, 0
1.50272, 1.22206, 3.76288, 74, 73, 80
-3.43118, 2.43102, -5.72237, 185, 207, 221
2.30194, 0.488255, 5.24745, 0, 5, 20
1.44964, 1.17757, 3.75927, 163, 179, 189
0.252938, 2.31028, -5.84359, 76, 86, 100
8.97428, 2.52034, -28.7506, 170, 181, 190
1.20459, 1.38207, 3.9197, 98, 94, 99
-2.82157, 2.00293, -4.61913, 182, 205, 238
4.16685, 2.45285, -9.73575, 152, 154, 164
2.11767, 0.781752, -2.42231, 171, 167, 160
1.32021, 1.83042, 3.85263, 165, 161, 162
17.277, 4.99569, 19.8356, 94, 107, 116
2.06406, 1.07558, -2.7571, 146, 130, 135
6.19571, 2.32399, -15.7061, 85, 87, 93
13.0735, 0.276395, -27.6918, 151, 94, 33
0.274842, 0.281673, 19.8736, 43, 18, 0
10.9493, -3.21477, -19.1208, 56, 60, 55
3.42532, 0.320722, 7.38112, 135, 140, 149
1.08864, 1.30816, 4.02559, 67, 63, 68
-15.1111, 10.7634, 52.0132, 51, 53, 59
1.70252, 1.24086, 3.61739, 73, 77, 91
-0.391885, 2.50397, -6.08248, 173, 175, 181
3.52612, 1.97933, -11.6654, 179, 182, 185
2.38058, 0.295811, -2.74841, 90, 95, 102
9.42294, -11.3735, 172.779, 146, 163, 164
12.187, 1.99985, -20.5019, 111, 112, 108
2.37896, 0.285532, -2.74592, 45, 51, 64
3.74452, -1.04027, 14.0401, 168, 174, 176
-0.407338, 2.52172, -6.12584, 207, 206, 208
1.50098, 1.25486, 3.7601, 84, 87, 90
1.58891, 1.23157, 3.74255, 88, 95, 103
1.45711, 1.40013, 3.80625, 165, 161, 166
0.0372296, 2.08552, 5.03741, 187, 149, 122
2.33694, 0.572294, 5.19921, 40, 55, 72
2.07108, 1.08937, -2.70228, 137, 106, 108
-2.6965, 2.10972, -4.95763, 178, 216, 241
1.68247, 1.53319, 3.6352, 96, 92, 97
0.790485, 0.0793506, 28.3114, 36, 16, 0
1.68606, 1.26699, 3.6397, 68, 72, 86
1.5564, 1.52596, 3.72106, 178, 172, 176
1.45234, 1.50995, 3.72568, 92, 88, 93
1.23263, 1.43722, 3.90177, 110, 109, 111
2.34028, 0.72177, 5.14165, 41, 63, 87
2.40923, 0.658754, 5.19348, 33, 49, 68
1.23383, 1.22761, 3.91898, 18, 28, 46
2.37571, 0.466714, 5.2847, 7, 17, 31
1.27049, 1.01956, 3.94312, 155, 128, 164
-2.80551, 2.01208, -4.70899, 226, 255, 255
2.37221, 0.279874, -2.75815, 145, 143, 154
3.55192, -0.971765, 13.6942, 112, 114, 120
2.09422, 1.04638, -2.71981, 174, 164, 164
1.43859, 1.19887, 3.78041, 14, 42, 75
2.08865, 1.04752, -2.6389, 128, 99, 105
1.17889, 1.50249, 3.91809, 176, 172, 173
1.0879, 1.32293, 4.06238, 69, 68, 75
542.154, 66.6356, 611.011, 36, 48, 50
2.37324, 0.292908, -2.73416, 86, 94, 95
2.08438, 1.04657, -2.74154, 118, 93, 101
1.68134, 1.5372, 3.64438, 89, 85, 90
1.71116, 1.63336, 3.60981, 178, 174, 177
-2.24346, 2.57679, -5.86109, 154, 180, 198
5.42531, 3.03671, -28.3402, 147, 146, 153
1.7211, 1.62667, 3.61468, 181, 180, 180
2.10898, 1.01212, -2.68977, 157, 147, 145
-2.83693, 1.90693, -4.34386, 184, 235, 198
-0.859814, -1.13999, 18.683, 122, 133, 142
0.157444, 2.58167, -6.55277, 84, 93, 105
1.94282, 1.57451, -4.13918, 137, 121, 126
1.08404, 1.30671, 3.9916, 117, 113, 114
-2.4516, 2.41043, -5.68653, 93, 122, 150
1.61801, 1.24915, 3.70807, 85, 90, 97
-0.468025, -1.60667, 22.1233, 130, 142, 148
10.9107, 1.82858, -18.2396, 65, 66, 62
1.58739, 1.39018, 3.70641, 148, 147, 149
1.97647, 1.54839, -4.05575, 190, 190, 194
1.22687, 1.54328, 3.87014, 118, 109, 112
1.31265, 1.23095, 3.87109, 174, 161, 167
1.4864, 1.25955, 3.77184, 109, 108, 112
2.3971, 0.703704, 5.15117, 0, 10, 35
4.17217, 1.5887, -8.60828, 140, 140, 142
1.62918, 1.41664, 3.64589, 102, 101, 103
40.2738, -135.035, 1489.95, 114, 117, 118
1.27617, 1.22554, 3.88176, 162, 167, 174
1.93263, 1.57628, -4.1343, 150, 113, 122
2.09046, 0.996975, -2.65397, 114, 96, 106
1.66983, 1.49862, 3.64237, 165, 164, 164
2.09817, 1.00474, -2.66505, 162, 148, 159
-1.44534, -1.11997, 20.7815, 32, 34, 44
1.08865, 1.31019, 4.03017, 65, 63, 70
2.37716, 0.277898, -2.76712, 95, 91, 110
-1.16145, 0.360843, 9.62754, 149, 100, 41
1.45418, 1.0123, 3.80972, 42, 65, 102
1.67681, 1.53172, 3.62265, 84, 80, 85
1.35479, 1.28896, 3.57719, 155, 150, 146
6.66417, 1.9428, -18.5345, 183, 194, 194
2.05373, 1.09938, -2.68279, 140, 117, 98
1.31832, 1.2138, 3.85949, 158, 130, 143
1.30076, 1.23303, 3.86669, 114, 107, 129
1.63154, 1.387, 3.68952, 101, 92, 97
-1.46548, -1.40501, 20.3291, 106, 111, 118
-0.417882, 2.04466, 9.51217, 11, 20, 30
1.58011, 1.38989, 3.69961, 134, 133, 135
1.4483, 1.39718, 3.75455, 103, 91, 104
1.62094, 1.23362, 3.71429, 84, 89, 98
2.3094, 0.592748, 5.18603, 128, 139, 150
1.64135, 1.39923, 3.67278, 170, 168, 175
-2.79608, 1.82294, -4.12907, 183, 229, 190
1.44949, 1.37748, 3.74277, 84, 79, 89
-15.334, 3.21118, -44.3059, 192, 182, 180
4.569, 2.27212, -13.5245, 52, 50, 64
2.07279, 1.08512, -2.77899, 95, 78, 90
2.05925, 1.0963, -2.71279, 167, 156, 151
2.05631, 1.09175, -2.70377, 172, 153, 149
1.54691, 1.22484, 3.74843, 101, 106, 115
1.47921, 1.53526, 3.71206, 108, 102, 106
1.22495, 1.4244, 3.90562, 85, 81, 86
2.4288, 0.697787, 5.66517, 36, 50, 70
-35.7435, 143.756, -1479.63, 133, 140, 144
1.60153, 1.1806, 3.71335, 55, 80, 112
3.50339, -0.959054, 13.4683, 116, 123, 131
0.794743, 0.0868497, 27.5373, 32, 12, 0
-0.733875, -0.940992, 16.9108, 98, 112, 118
1.68966, 1.60941, -4.17143, 165, 125, 138
2.07389, 1.08916, -2.70554, 152, 130, 132
3.55423, 1.90587, -11.9316, 52, 54, 62
1.57239, 1.49918, 3.67313, 79, 73, 88
1.48475, 1.41317, 3.7048, 132, 130, 139
-2.81388, 1.9779, -4.65278, 113, 142, 168
-14.6658, 3.06194, -42.5042, 207, 179, 180
10.9185, 1.82077, -18.252, 65, 66, 62
-8.54728, 0.314698, 28.4762, 160, 109, 39
2.1644, 0.678617, 5.14794, 13, 26, 51
2.25326, -0.0222152, 6.65021, 84, 89, 98
2.10251, 0.116057, 3.36133, 154, 165, 174
-0.313085, 2.47797, -6.0173, 169, 171, 179
1.49419, 1.53801, 3.70417, 121, 117, 118
1.61712, 1.50814, 3.65027, 96, 92, 97
1.61489, 1.24827, 3.68349, 125, 130, 137
-0.322345, 2.52228, -6.12375, 171, 173, 181
-0.390022, 2.51725, -6.11363, 173, 175, 181
1.49463, 1.21684, 3.74754, 74, 73, 80
-1.44427, -1.10816, 20.7607, 29, 31, 39
1.82017, 1.61896, -4.13676, 181, 163, 171
4.29516, 1.29857, -8.0454, 114, 110, 111
-2.78902, 1.99358, -4.59734, 87, 117, 151
1.30953, 1.21475, 3.89215, 115, 95, 98
2.407, 0.73016, 5.64185, 4, 24, 48
1.55749, 1.39947, 3.70067, 84, 80, 81
-0.265378, -1.93208, 27.9919, 55, 65, 72
-13.6518, 3.14796, -39.2215, 184, 75, 88
2.0892, 1.07364, -2.74139, 129, 105, 109
2.5038, 0.707465, 5.68923, 32, 42, 56
2.30936, 0.641391, 5.18623, 57, 65, 80
-8.84393, 0.421077, 28.7195, 60, 21, 0
1.50193, 1.51075, 3.70894, 83, 80, 77
-2.72705, 2.13671, -4.95937, 63, 90, 110
-2.76313, 2.11884, -4.99742, 164, 186, 200
1.28306, 0.995962, 3.91909, 120, 102, 110
4.01459, 2.03451, -8.17361, 123, 123, 125
3.43318, -0.936492, 13.1092, 139, 146, 154
1.47732, 1.70731, 4.25731, 175, 172, 169
1.45294, 1.39305, 3.73768, 165, 161, 166
1.57969, 1.38828, 3.69642, 134, 133, 135
1.49742, 1.38894, 3.75144, 125, 124, 128
1.2989, 1.37327, 3.83879, 91, 87, 92
-0.689521, -0.922326, 16.0815, 97, 109, 115
1.32578, 1.18467, 3.86482, 40, 41, 72
-2.37805, 2.5535, -5.83316, 140, 164, 192
-0.449722, 2.25031, 5.87329, 127, 93, 69
0.0319712, 2.05571, 4.96102, 189, 156, 127
-1.06678, 0.389017, 9.28012, 62, 21, 0
3.43987, 2.02223, -11.8224, 131, 132, 128
1.52927, 1.52335, 3.66105, 120, 114, 120
1.58458, 1.39929, 3.69412, 175, 175, 177
1.23509, 1.17914, 3.93777, 50, 61, 82
1.33063, 1.22562, 3.84028, 22, 33, 72
-0.306, 2.35146, -5.71151, 169, 164, 172
2.0647, 1.0773, -2.75891, 146, 130, 135
4.44722, 1.36596, -8.41323, 164, 165, 161
4.34353, 1.25034, -8.36932, 157, 164, 172
4.06031, 2.17806, -8.79794, 142, 149, 155
1.58097, 1.40796, 3.63866, 108, 106, 113
1.45014, 1.37517, 3.74395, 87, 82, 90
4.27068, 0.946074, -8.73553, 81, 95, 99
1.6782, 1.53237, 3.63257, 89, 85, 90
17.4682, -6.18054, -32.7466, 90, 89, 93
4.27809, 1.32977, -8.14449, 114, 120, 122
1.4756, 1.37933, 3.72418, 114, 108, 110
1.49144, 1.37704, 3.71427, 129, 128, 132
1.53938, 1.40454, 3.72333, 166, 165, 167
-1.35601, 2.5162, -5.96895, 111, 118, 126
2.09056, 1.04973, -2.64454, 174, 157, 159
4.31339, 1.23873, -8.22543, 67, 71, 83
1.72722, 1.61391, -4.17411, 110, 51, 75
-1.62638, 1.06651, -2.48334, 158, 229, 167
1.37004, 1.50393, 3.73782, 126, 120, 124
-0.354976, 2.12734, 10.1131, 10, 13, 14
1.64089, 1.40082, 3.67515, 169, 167, 174
10.3524, -2.59733, -17.7483, 126, 134, 123
6.10487, 2.16791, -15.9501, 16, 15, 24
2.19667, 0.668486, 5.17884, 14, 32, 57
1.32198, 1.18099, 3.84998, 34, 40, 71
2.08138, 1.08587, -2.69222, 183, 162, 159
-22.5166, 4.92298, 51.7353, 84, 25, 0
2.09007, 1.06203, -2.72217, 107, 93, 106
0.794324, 0.111079, 29.0775, 37, 17, 0
-1.16113, 0.364974, 9.62349, 154, 103, 33
2.378, 0.278339, -2.76878, 145, 144, 155
1.49029, 1.52647, 3.70761, 174, 165, 168
2.34788, 0.498526, 5.27183, 22, 29, 37
4.2253, 1.07998, -8.58278, 85, 97, 103
4.50539, 1.23818, -9.86957, 69, 80, 78
1.62527, 1.50678, 3.66424, 145, 144, 148
-8.06831, 0.303284, 26.6742, 155, 101, 52
11.101, 0.282176, -23.1984, 153, 92, 14
-2.82205, 1.84062, -4.15994, 189, 223, 190
1.90248, 1.59496, -4.13599, 135, 40, 74
6.39205, 2.30909, -16.6675, 10, 12, 18
4.3026, 1.29825, -8.05654, 105, 101, 102
1.66454, 1.54352, 3.64544, 115, 109, 113
1.44509, 1.51735, 3.71861, 171, 162, 165
1.31684, 1.21357, 3.8092, 25, 32, 65
2.27509, 0.0152128, 6.81425, 86, 96, 110
-0.75205, 2.48023, -6.09775, 108, 112, 126
-2.37817, 2.48367, -5.73131, 104, 122, 145
1.23749, 1.26892, 3.94625, 77, 79, 87
1.31752, 1.19537, 3.88001, 172, 150, 164
3.47521, 2.00449, -11.783, 124, 126, 132
1.23576, 1.53369, 4.00504, 139, 128, 134
4.06017, 2.04456, -8.2849, 102, 102, 104
1.63627, 1.38503, 3.66459, 108, 106, 113
-2.77971, 1.92644, -4.45346, 73, 95, 121
2.08595, 1.05835, -2.64277, 116, 84, 89
2.02264, 1.08826, -2.69136, 112, 97, 96
2.31449, 0.743116, 5.09235, 12, 33, 64
1.29985, 1.19918, 3.88522, 83, 69, 82
2.47229, 0.605794, 5.72459, 15, 27, 43
2.30867, 0.693748, 5.13731, 8, 30, 52
1.94389, 1.57062, -4.13518, 127, 109, 115
1.59358, 1.22478, 3.71626, 102, 108, 119
-1.75093, -1.53588, 21.6394, 71, 76, 85
2.09128, 1.04493, -2.65992, 135, 119, 126
2.22935, 0.583747, 5.23745, 22, 35, 46
1.32263, 1.18066, 3.85597, 40, 41, 72
-1.7322, -1.52242, 21.3638, 64, 68, 80
1.67624, 0.804988, 3.39676, 129, 140, 151
1.33074, 1.52718, 3.78549, 96, 93, 90
1.37716, 1.52581, 3.76484, 100, 91, 96
1.52225, 1.36958, 3.70912, 92, 86, 90
3.50956, 1.96889, -11.6186, 179, 182, 185
1.20098, 1.26184, 3.94459, 52, 64, 78
2.22004, 0.183553, 6.65082, 86, 100, 106
1.238, 1.42335, 3.86133, 128, 123, 131
-0.568576, 0.306179, 7.79283, 130, 101, 78
4.35425, 1.22666, -8.40783, 119, 126, 134
4.07904, 1.13867, -8.22042, 85, 90, 95
21.5745, 7.85693, -77.3926, 14, 19, 39
1.40658, 1.52178, 3.82414, 167, 157, 167
6.29966, 2.43217, -16.5209, 141, 148, 156
2.32085, 0.557214, 5.24159, 18, 26, 45
1.24621, 1.20352, 3.97557, 40, 50, 68
1.43318, 1.18338, 3.73246, 163, 183, 196
2.37263, 0.296062, -2.73883, 90, 95, 102
1.60968, 0.755328, 6.1887, 69, 85, 93
16.7647, 4.83684, 19.1607, 86, 98, 100
1.37645, 1.49061, 3.77763, 90, 86, 87
2.17942, 0.0409866, 6.80382, 117, 120, 119
1.24794, 1.22553, 3.90881, 117, 130, 155
1.58143, 1.24745, 3.72451, 84, 94, 101
1.44553, 1.37092, 3.67644, 168, 164, 167
1.55281, 1.42026, 3.69809, 104, 104, 108
-1.14563, 0.359493, 9.55531, 152, 103, 44
1.62721, 1.52247, 3.62933, 171, 165, 167
1.37805, 1.53217, 3.77681, 95, 89, 91
2.45297, 0.662777, 5.17682, 22, 42, 64
12.3099, 0.278265, -26.0347, 165, 101, 26
5.84335, 2.98215, -28.2231, 57, 55, 69
1.66156, 1.51401, 3.65513, 117, 112, 120
2.08764, 1.04772, -2.63884, 128, 99, 105
4.17396, 1.28861, -7.88968, 162, 168, 168
1.43554, 0.997407, 3.84113, 87, 75, 99
-2.13236, 2.49261, -5.66278, 94, 114, 127
1.58198, 1.20614, 3.73092, 120, 131, 140
4.16583, 2.45519, -9.73357, 152, 154, 164
1.81808, 1.6145, -4.12637, 183, 165, 173
1.47984, 1.8374, 3.92333, 143, 140, 135
4.12107, 1.57351, -8.49507, 140, 140, 142
-8.43121, 0.381161, 27.2832, 46, 25, 8
1.62115, 1.52837, 3.65933, 90, 84, 88
-2.36581, 2.47086, -5.70164, 104, 122, 145
2.04722, 1.06437, -2.64432, 207, 193, 189
1.23587, 1.18287, 3.95065, 62, 73, 94
1.82033, 1.61806, -4.13706, 181, 163, 171
5.80871, 3.47826, -30.4391, 148, 151, 154
1.23272, 1.49483, 3.85802, 172, 168, 173
1.62916, 1.38463, 3.68174, 101, 92, 97
17.3404, -6.12937, -32.4944, 90, 89, 93
2.08034, 1.09505, -2.72103, 151, 131, 134
-0.456796, 2.01943, 8.5894, 14, 17, 20
1.22733, 1.39391, 3.90002, 112, 110, 117
20.6144, 1.87215, 25.0026, 61, 75, 79
6.23039, 2.2485, -15.5446, 143, 155, 157
4.23935, 1.32025, -8.0674, 138, 144, 146
2.04806, 1.11122, -2.74618, 183, 147, 149
1.43468, 0.994431, 3.83235, 76, 66, 96
1.59398, 1.37996, 3.67596, 120, 119, 123
2.28979, 0.671261, 5.16655, 33, 49, 68
1.23689, 1.39721, 3.91184, 113, 111, 118
1.55775, 1.25134, 3.71017, 121, 131, 136
1.63541, 1.53853, 3.64071, 111, 105, 109
1.67714, 1.25706, 3.63041, 64, 67, 84
1.3847, 1.40853, 3.76845, 117, 116, 118
11.7464, 0.292575, -24.6545, 154, 93, 19
2.16898, 0.480985, -2.34977, 146, 146, 148
1.5728, 1.39943, 3.6884, 87, 83, 86
1.63138, 1.38754, 3.67487, 80, 74, 78
2.09076, 1.04722, -2.72986, 168, 152, 157
1.65285, 1.23494, 3.69651, 141, 143, 151
-14.7453, 3.50495, -42.5993, 199, 78, 86
-0.792722, -0.988155, 17.2316, 106, 118, 124
2.07715, 0.538062, 4.54767, 4, 18, 40
2.6755, -0.307202, 9.17916, 184, 189, 196
6.69669, 2.5483, -17.1721, 100, 103, 106
-1.69312, -1.5562, 21.7229, 59, 60, 73
1.92452, 1.0328, -2.77957, 184, 175, 178
1.93817, 1.56672, -4.13511, 106, 83, 91
2.09384, 1.05203, -2.65201, 219, 202, 204
3.43762, 1.91785, -11.9152, 145, 146, 142
2.05229, 1.07954, -2.65837, 103, 65, 58
-2.4014, 2.37388, -5.59152, 111, 137, 164
-1.65192, 2.6006, -6.17266, 187, 192, 210
20.5185, 7.49424, -73.4417, 20, 25, 45
4.22576, 1.10165, -8.58841, 64, 71, 77
2.05463, 1.09694, -2.68319, 144, 119, 99
8.1093, 2.24319, -24.7974, 212, 224, 230
4.2874, 0.95389, -8.75634, 89, 101, 107
1.32398, 1.23046, 3.83207, 25, 40, 82
-1.39476, 2.07125, 7.50859, 88, 91, 90
1.59565, 1.25072, 3.71818, 88, 98, 105
1.38, 1.46343, 3.63771, 100, 92, 89
5.62559, 3.23136, -29.7527, 86, 82, 87
1.2553, 1.41557, 3.91286, 76, 75, 79
-1.18084, 2.5655, -6.19982, 188, 210, 232
3.36393, 0.308748, 7.24852, 135, 140, 149
1.23374, 1.22802, 3.91877, 18, 28, 46
0.300615, 2.26259, -5.74483, 213, 225, 241
1.23555, 1.38967, 3.89007, 110, 109, 116
1.26791, 1.39388, 3.86249, 109, 103, 105
1.19963, 1.53176, 3.9932, 176, 172, 173
1.61345, 1.40888, 3.68164, 102, 93, 96
1.66675, 1.26904, 3.69695, 187, 185, 192
1.08864, 1.30816, 4.02559, 67, 63, 68
4.47611, 0.458493, 9.16913, 155, 158, 161
1.94023, 1.57105, -4.12843, 137, 121, 126
1.59392, 1.48005, 3.66693, 117, 116, 118
1.20766, 1.54305, 3.90012, 99, 91, 90
1.61963, 1.18056, 3.70208, 57, 85, 120
3.49616, 1.95475, -11.528, 174, 177, 180
1.26833, 1.38035, 3.83199, 126, 119, 128
-2.34278, 2.49316, -5.72166, 93, 112, 141
2.08912, 1.04592, -2.71974, 171, 161, 161
1.55103, 1.34885, 3.55492, 90, 81, 84
3.25225, -0.717055, 12.4193, 91, 98, 102
1.6629, 1.26524, 3.68837, 187, 185, 192
-2.4595, 1.89034, -4.41521, 152, 191, 182
4.22509, 2.01819, -15.7447, 57, 60, 81
1.59918, 1.26101, 3.76383, 84, 94, 101
1.6486, 1.18724, 3.69387, 93, 111, 138
1.22733, 1.39391, 3.90002, 112, 110, 117
6.19184, 1.99896, -16.8543, 21, 13, 29
1.36355, 1.4175, 3.78396, 86, 82, 87
-0.386905, -2.09256, 30.6365, 67, 79, 83
1.3949, 1.50817, 3.78171, 172, 166, 172
0.0354991, 2.3534, -5.94068, 194, 200, 211
5.10154, 2.51996, -23.9164, 40, 35, 45
2.37622, 0.28335, -2.7644, 169, 168, 170
-2.81493, 1.89977, -4.32092, 180, 213, 187
1.52802, 1.49565, 3.69223, 143, 142, 144
1.52816, 1.42327, 3.71832, 89, 88, 92
1.32057, 1.40069, 3.81945, 177, 174, 169
1.25553, 1.41736, 3.91652, 76, 75, 79
1.67147, 1.49894, 3.63407, 116, 115, 119
1.64748, 1.1838, 3.68626, 93, 111, 138
11.1467, -2.85673, -19.6284, 150, 153, 152
4.31245, 1.34244, -8.20679, 114, 120, 122
2.093, 1.10976, -2.75202, 199, 184, 183
-2.82888, 1.84426, -4.17318, 183, 229, 190
-2.82384, 1.90593, -4.33056, 182, 215, 189
-1.08613, 0.39168, 9.35212, 69, 21, 0
1.44855, 1.00103, 3.81932, 137, 152, 178
3.59878, 1.78296, -11.9529, 34, 33, 44
1.50747, 1.43375, 3.8225, 94, 90, 93
3.42436, 1.8822, -11.8727, 132, 132, 128
2.39693, 0.701763, 5.13962, 0, 13, 38
2.35128, 0.731684, 5.11029, 46, 67, 86
15.7162, 5.48672, 17.9343, 79, 94, 109
9.7646, -2.23677, -16.7727, 132, 145, 144
-1.19706, 2.55685, -6.19192, 166, 181, 205
-2.80592, 1.89376, -4.31399, 190, 217, 199
4.2461, 0.938045, -8.6669, 58, 70, 76
-2.73154, 2.03487, -4.78767, 163, 220, 184
2.26093, 0.69251, 5.17394, 42, 62, 75
-0.315611, 2.51201, -6.09896, 169, 171, 179
17.0057, 5.01499, 19.5474, 46, 57, 66
-2.82003, 1.91606, -4.40574, 79, 99, 121
1.45532, 1.03098, 3.8002, 117, 139, 163
2.42387, 0.394297, 5.30607, 248, 234, 247
1.61041, 1.58956, -4.18651, 173, 104, 101
2.38624, 0.476521, 5.30483, 8, 18, 34
1.08867, 1.32002, 4.05231, 67, 66, 73
2.97582, -0.144744, -3.66025, 145, 127, 107
2.21204, 0.523862, 5.20189, 19, 27, 42
2.08894, 1.05973, -2.64753, 148, 121, 124
2.34697, 0.478122, 5.26957, 20, 25, 32
-0.914886, 2.58406, -6.30864, 69, 66, 80
1.35172, 1.42563, 3.79793, 116, 110, 114
1.38135, 1.41039, 3.76827, 89, 85, 90
-2.86238, 2.03089, -4.68464, 182, 205, 238
2.47283, 0.390864, 5.35242, 119, 100, 117
-0.527155, -1.66631, 23.0119, 136, 148, 154
1.29439, 1.358, 3.81459, 144, 138, 142
2.09989, 1.06404, -2.66771, 211, 196, 197
2.45211, 0.689976, 5.49492, 27, 35, 50
1.6775, 1.52606, 3.6292, 93, 87, 91
-0.561747, 0.23801, 7.86861, 129, 129, 129
12.8095, 0.163443, -27.3548, 92, 38, 0
16.9738, 4.97702, 19.5116, 80, 93, 102
4.06882, 1.13528, -8.20899, 91, 96, 101
-1.1876, 0.357069, 9.67818, 155, 101, 25
1.2955, 1.37296, 3.83853, 108, 104, 109
1.55788, 1.5919, 3.87625, 167, 164, 159
1.59868, 1.41419, 3.65837, 123, 122, 126
4.64688, 4.15615, -38.8067, 184, 191, 197
1.24896, 1.21361, 3.90532, 41, 51, 77
1.31228, 1.21358, 3.89303, 106, 82, 86
1.42924, 1.00779, 3.84537, 175, 169, 175
1.23544, 1.09137, 3.95368, 88, 106, 131
4.68941, 1.09518, -10.4167, 102, 115, 126
4.49865, 1.1668, -8.66134, 25, 30, 35
-1.71016, -1.52892, 21.3315, 58, 59, 74
2.37113, 0.282404, -2.75462, 130, 128, 144
-1.62224, 2.57917, -6.12527, 187, 193, 206
2.10158, 1.0422, -2.73692, 100, 80, 83
1.58693, 1.69068, 4.51478, 92, 86, 90
6.39422, 2.29424, -16.7703, 26, 25, 36
1.31129, 1.20709, 3.79041, 25, 32, 65
1.27363, 1.40389, 3.84839, 174, 166, 163
2.06991, 1.09712, -2.72301, 199, 184, 183
1.45848, 1.02158, 3.84596, 66, 74, 104
4.32734, 1.25483, -8.3343, 160, 167, 175
2.38115, 0.742678, 5.16825, 29, 50, 69
1.68082, 1.25057, 3.69749, 85, 80, 90
16.5055, -5.80837, -30.7862, 58, 58, 62
2.39634, 0.719974, 5.13168, 10, 40, 63
1.27916, 1.1879, 3.8946, 114, 124, 150
2.08852, 1.073, -2.73975, 129, 105, 109
1.62454, 1.53704, 3.65695, 91, 87, 88
1.48989, 1.41705, 3.78291, 100, 96, 99
-0.5667, 0.285322, 7.94024, 76, 58, 49
1.19902, 1.42497, 3.90222, 113, 106, 117
2.07913, 1.0607, -2.78267, 88, 64, 79
1.27997, 1.42613, 3.84213, 124, 120, 123
0.0616775, 2.31951, -5.89887, 191, 208, 224
1.5434, 1.41254, 3.69629, 178, 178, 180
1.41942, 1.51844, 3.73603, 95, 90, 86
1.97648, 1.52402, -4.03583, 175, 169, 171
1.24316, 1.52499, 3.83132, 102, 96, 100
3.61869, -1.0016, 13.5221, 171, 177, 177
2.42643, 0.390342, 5.31403, 220, 213, 222
3.50388, 1.81179, -11.5545, 177, 185, 184
1.3659, 1.21584, 3.95146, 74, 97, 132
1.26202, 0.992639, 3.93207, 178, 164, 179
-0.733721, -0.922018, 16.8869, 106, 118, 124
1.53304, 1.23404, 3.67527, 112, 121, 131
1.22661, 1.39191, 3.89733, 112, 110, 117
1.57682, 1.36502, 3.63864, 120, 119, 123
1.52691, 1.48766, 3.67347, 126, 126, 130
-2.23955, 2.57429, -5.85402, 154, 180, 198
-8.13846, 0.310894, 26.9437, 155, 101, 52
3.45353, 1.91761, -12.0182, 188, 188, 184
16.4374, 1.46638, 20.3164, 58, 68, 71
-15.3335, 3.60059, -43.781, 170, 98, 112
3.43801, 1.91683, -11.9165, 145, 146, 142
-0.781806, 2.53977, -6.25493, 145, 156, 177
1.6721, 1.4999, 3.63723, 116, 115, 119
3.71103, 1.73406, -12.0555, 175, 180, 187
1.52303, 1.5095, 3.66473, 164, 158, 160
1.69184, 1.2885, 3.67676, 148, 145, 142
1.30556, 1.53055, 3.80978, 115, 114, 116
-0.57305, 0.234983, 7.92984, 137, 137, 131
1.9384, 1.5628, -4.11221, 127, 121, 125
-0.582019, 0.305108, 7.83166, 143, 116, 94
6.30054, 2.2819, -16.5609, 24, 26, 36
5.88199, 2.02671, -14.565, 22, 21, 28
4.59806, 4.04366, -38.0736, 188, 193, 198
1.60749, 1.31204, 4.01832, 72, 71, 75
1.27054, 1.22409, 3.88324, 165, 163, 174
1.31137, 1.39084, 3.8362, 185, 179, 181
0.756482, 0.109473, 28.4103, 32, 21, 12
3.54275, 1.81377, -11.6047, 176, 182, 182
2.38789, 0.413438, 5.24035, 58, 43, 73
-1.16903, 0.36288, 9.66124, 149, 100, 41
6.36357, 2.19299, -16.8425, 172, 174, 180
-0.368812, -2.06091, 30.2241, 67, 79, 83
1.28101, 0.995218, 3.89468, 120, 95, 105
3.10645, 0.292373, 6.31609, 77, 82, 89
4.3313, 0.857054, -7.64694, 99, 107, 108
13.0208, 0.147132, -27.838, 72, 22, 0
1.2367, 1.05848, 3.94173, 27, 47, 73
1.91179, 0.415479, 5.30128, 179, 184, 193
1.27947, 1.22978, 3.8964, 158, 161, 180
1.2854, 1.04139, 3.90236, 140, 151, 172
2.09852, 1.06862, -2.66979, 210, 200, 198
2.30544, 0.472924, 5.25527, 8, 9, 22
-1.74164, 1.1134, -2.57172, 180, 254, 187
3.44822, 1.96807, -11.9621, 108, 114, 112
2.0797, 1.08386, -2.68694, 184, 163, 160
3.61154, 1.78895, -12.1524, 33, 31, 45
1.23063, 1.42647, 3.87516, 110, 109, 113
1.1628, 1.53383, 3.92738, 184, 180, 183
1.20519, 1.38591, 3.92232, 98, 94, 99
1.63535, 1.42399, 3.67374, 92, 91, 93
3.14433, 0.296207, 6.39316, 77, 82, 89
1.59188, 1.40914, 3.67391, 172, 171, 173
1.23533, 1.18026, 3.94163, 50, 61, 82
2.46684, 0.638599, 5.19225, 15, 33, 60
-2.8111, 1.97455, -4.58729, 193, 223, 255
2.07001, 1.0859, -2.69626, 137, 106, 108
-2.37999, 2.55823, -5.84096, 140, 164, 192
-2.14948, 2.50942, -5.69262, 126, 147, 164
2.09135, 1.06174, -2.6531, 175, 155, 156
-2.45011, 2.38558, -5.58444, 183, 208, 233
0.244516, 0.251984, 18.9502, 42, 19, 0
1.46965, 1.5272, 3.70355, 93, 89, 90
1.7237, 1.35543, 3.626, 55, 50, 62
2.28195, 0.551657, 5.22608, 25, 28, 45
-0.916432, -0.759324, 14.2052, 15, 14, 23
2.31652, 0.665831, 5.17827, 108, 128, 143
-0.420538, 2.02075, 9.88415, 77, 80, 83
2.20681, 0.496479, 5.27438, 81, 36, 55
1.60155, 0.75093, 6.17563, 72, 88, 96
1.24381, 1.53182, 3.84534, 96, 85, 93
-11.9568, 0.559109, 36.8804, 114, 74, 30
2.18274, 0.607356, 5.15305, 9, 28, 46
1.70215, 0.816941, 3.42766, 152, 169, 181
-1.70832, -1.53552, 21.3192, 58, 59, 74
1.20879, 1.5477, 3.91594, 150, 142, 141
2.13905, 0.568492, 5.21502, 4, 14, 32
1.80977, 1.5997, -4.08622, 183, 167, 174
2.2592, 0.223601, 6.69349, 101, 96, 104
1.66983, 1.5394, 3.66651, 172, 166, 170
1.261, 1.2126, 3.9035, 133, 147, 167
1.40838, 1.01746, 3.79291, 179, 160, 173
1.62962, 1.38099, 3.67669, 95, 86, 91
-0.344497, 2.14514, 10.0686, 19, 19, 19
1.28228, 1.48199, 4.01122, 125, 124, 131
2.33498, 0.618614, 5.15453, 25, 32, 54
1.32056, 1.17466, 3.83136, 39, 46, 79
2.05719, 1.08396, -2.6672, 103, 65, 58
-0.427939, 1.98942, 9.20398, 11, 18, 26
12.7349, 0.152463, -27.1799, 92, 38, 0
5.77117, 2.21092, -14.8441, 99, 106, 110
1.18132, 1.5413, 3.90844, 101, 90, 94
6.14793, 2.38334, -15.6923, 165, 177, 179
1.59104, 1.60639, 3.92001, 75, 72, 69
4.26412, 1.3233, -8.11021, 114, 120, 122
-0.478495, 2.27798, 5.96492, 125, 91, 67
1.40009, 1.4885, 3.75413, 94, 87, 96
1.46964, 1.48733, 3.72763, 138, 134, 135
1.92575, 1.04688, -2.78118, 192, 184, 183
1.45709, 1.39797, 3.74824, 165, 161, 166
2.01109, 0.587206, 6.83114, 180, 136, 134
5.01541, -1.08398, 17.9097, 146, 124, 116
2.42918, 0.395824, 5.34773, 255, 248, 255
-0.933577, 2.60894, -6.36946, 76, 73, 87
1.57744, 1.21643, 3.62628, 102, 104, 112
3.40782, 0.317816, 7.32698, 128, 133, 142
-0.630913, 0.232966, 8.06299, 121, 112, 105
3.36942, 1.93718, -11.2775, 121, 127, 129
-4.70011, 27.778, -290.619, 137, 145, 146
4.12218, 1.57075, -8.49715, 140, 140, 142
2.45707, 0.387522, 5.29453, 96, 64, 88
2.06984, 1.08154, -2.77532, 96, 77, 92
2.35338, 0.461929, 5.22565, 7, 17, 31
0.194673, -0.241969, 2.6795, 145, 163, 172
-2.42773, 2.38667, -5.60221, 182, 221, 255
2.06594, 1.10591, -2.70735, 141, 118, 97
-2.80878, 1.7822, -4.09007, 185, 216, 186
1.29219, 1.36382, 3.81236, 124, 120, 125
-0.402379, 2.51864, -6.11727, 207, 206, 208
2.08896, 1.02117, -2.67256, 163, 141, 159
1.29104, 1.21275, 3.89863, 180, 163, 177
6.23791, 2.34941, -15.8544, 85, 90, 97
-1.45483, -1.11346, 20.6197, 41, 48, 54
4.64287, 0.301491, 8.23742, 36, 37, 50
2.09153, 1.06507, -2.76587, 167, 148, 144
-2.67811, 2.13756, -4.92176, 157, 179, 189
2.19242, 0.490023, 5.2102, 72, 30, 44
7.21992, 2.07786, -20.3741, 201, 208, 214
1.34789, 1.38952, 3.81596, 121, 117, 120
11.7982, -14.3391, 217.27, 146, 163, 164
1.31513, 1.5035, 3.80973, 125, 121, 126
2.36333, 0.481382, 5.28717, 7, 11, 25
1.28574, 1.49232, 3.85126, 139, 130, 133
1.98273, 1.55979, -4.08927, 188, 191, 194
1.48615, 1.39247, 3.7239, 162, 161, 165
1.2662, 1.41889, 3.82921, 119, 113, 119
1.58067, 1.38749, 3.66702, 160, 163, 166
1.34965, 1.42844, 3.81096, 111, 105, 107
21.7533, 0.210093, -48.0289, 45, 19, 4
1.55839, 1.39892, 3.70431, 84, 80, 81
1.51253, 1.23545, 3.81786, 103, 101, 108
1.27002, 1.01984, 3.9394, 114, 93, 131
-0.323058, 2.48524, -6.0294, 169, 164, 172
-0.409984, 2.54058, -6.16557, 207, 206, 208
100.011, -335.084, 3685.4, 107, 113, 115
1.45152, 1.19095, 3.79161, 170, 187, 201
1.22416, 1.50846, 3.89079, 86, 81, 89
0.0565123, 2.33112, -5.91732, 188, 198, 214
1.23894, 1.19091, 3.96098, 68, 78, 96
1.45099, 1.68281, 4.23216, 86, 80, 84
2.28018, 0.19186, 6.72669, 120, 122, 132
2.40135, 0.699579, 5.14218, 37, 61, 91
1.34751, 1.38525, 3.81235, 117, 113, 116
-2.50285, 2.44461, -5.75545, 183, 216, 243
1.32062, 1.41864, 3.79992, 120, 114, 118
1.67291, 0.801149, 3.3798, 123, 136, 147
1.30978, 1.38228, 3.8371, 183, 177, 179
-0.239497, -1.88367, 27.3945, 19, 29, 36
-2.86894, 2.02268, -4.67167, 109, 139, 173
2.05262, 1.06997, -2.6545, 184, 163, 160
1.98222, 1.53571, -4.06646, 200, 199, 201
2.46334, 0.657915, 5.18277, 30, 50, 72
1.68666, 0.855796, 3.29872, 141, 162, 179
-2.74462, 2.12888, -4.88924, 143, 175, 193
-1.55147, 2.5941, -6.21206, 187, 207, 220
1.42168, 1.44051, 3.52369, 181, 179, 171
-2.40924, 2.3997, -5.65695, 167, 194, 203
1.42286, 1.00532, 3.84082, 175, 169, 175
1.27246, 1.21644, 3.86484, 164, 160, 163
2.0829, 1.01495, -2.65462, 104, 82, 100
1.86778, 2.10388, 5.12079, 95, 89, 91
0.088641, 2.94519, -7.42688, 89, 97, 116
1.24596, 1.20081, 3.96917, 40, 50, 68
0.225888, -0.749395, 1.80669, 160, 167, 189
1.99045, -0.0538282, 6.80525, 81, 92, 90
2.40227, 0.259902, -2.67144, 105, 109, 104
2.3096, 0.62449, 5.17245, 17, 26, 38
2.97134, -0.145981, -3.65191, 155, 136, 111
3.59378, 1.86034, -11.84, 177, 185, 184
-2.70885, 2.15346, -5.01028, 113, 138, 159
-2.73035, 2.14078, -4.96611, 63, 90, 110
-0.622344, 0.229828, 8.01346, 130, 123, 117
2.06991, 1.08973, -2.70088, 137, 106, 108
6.15574, 2.22912, -16.1149, 20, 22, 32
1.28271, 1.48789, 3.8344, 150, 141, 146
1.15711, 1.50488, 3.93485, 84, 77, 90
1.24181, 1.0518, 3.95946, 9, 27, 65
2.29002, 0.153493, 6.75997, 102, 115, 124
1.61182, 1.62079, -4.21294, 255, 179, 181
-2.51081, 2.47605, -5.83407, 100, 126, 153
2.37958, 0.687095, 5.15941, 0, 17, 43
1.41587, 1.6917, 4.20727, 95, 89, 91
1.72068, 0.089425, 3.87782, 155, 165, 170
1.65177, 1.1906, 3.69361, 92, 106, 128
-1.71557, -1.62821, 22.2521, 163, 169, 180
3.82076, 1.53521, 11.4265, 65, 70, 77
-0.741035, -0.923794, 16.9562, 106, 118, 124
-2.4359, 1.91264, -4.47672, 114, 152, 177
1.67251, 0.803332, 3.37419, 152, 167, 180
2.29248, 0.507731, 5.29809, 16, 14, 23
4.73925, -1.04912, 17.0852, 151, 142, 123
1.52971, 1.41106, 3.6757, 134, 136, 146
1.31041, 1.42273, 3.82042, 171, 167, 172
1.40736, 1.52146, 3.82931, 167, 157, 167
3.54559, 1.82857, -11.681, 177, 185, 184
1.55393, 1.40734, 3.6849, 90, 86, 89
1.34151, 0.987306, 3.86184, 181, 170, 178
1.24404, 1.39964, 3.9071, 105, 105, 109
2.36441, 0.717989, 5.12288, 8, 18, 36
1.24464, 1.25558, 3.93314, 64, 70, 108
1.23661, 1.26795, 3.94652, 77, 79, 87
-0.622646, 0.232696, 8.02085, 118, 109, 102
1.35861, 1.61815, 4.03643, 95, 89, 91
1.3454, 1.38897, 3.8117, 126, 122, 123
1.58381, 1.14501, 3.61591, 70, 100, 134
4.66298, 2.2885, -13.7551, 43, 44, 57
1.38826, 1.52677, 3.75903, 172, 163, 168
1.45543, 1.396, 3.79314, 169, 165, 170
2.43704, 0.727572, 5.14353, 23, 54, 81
0.304427, 2.26065, -5.7034, 173, 184, 207
1.48543, 1.37456, 3.70589, 129, 128, 132
3.35468, -0.656429, 12.4372, 94, 106, 108
1.38549, 1.28579, 3.41987, 85, 81, 82
1.52773, 1.39514, 3.67458, 171, 171, 171
-2.37998, 2.65241, -6.04419, 182, 206, 218
-2.79923, 1.89184, -4.30512, 167, 187, 170
1.52122, 1.36739, 3.71435, 100, 94, 98
1.21016, 0.981179, 3.98211, 95, 106, 117
1.26713, 1.03869, 3.93841, 26, 40, 89
-1.10412, 0.394896, 9.43393, 69, 21, 0
1.52887, 1.49868, 3.69879, 143, 142, 144
1.57031, 1.49639, 3.67809, 99, 94, 104
2.0863, 1.07003, -2.78219, 114, 96, 102
0.690511, 0.0681028, -0.923442, 179, 183, 176
2.1009, 1.03831, -2.71381, 184, 168, 173
-1.67054, 2.33386, -5.58913, 62, 60, 69
1.30331, 1.18956, 3.88025, 159, 145, 160
1.4548, 1.20558, 3.82567, 20, 46, 75
1.62635, 1.61048, -4.2098, 147, 21, 37
2.4828, 0.414907, 5.55384, 252, 255, 251
2.24931, 0.476342, 5.23462, 58, 25, 40
-1.60421, 2.56064, -6.10528, 91, 100, 110
2.4221, 0.395615, 5.32185, 255, 248, 255
1.67814, 1.7249, 4.14554, 93, 87, 89
2.40338, 0.259753, -2.67341, 105, 109, 104
-18.4738, 0.702994, -46.5651, 70, 64, 66
1.55081, 1.41524, 3.68462, 97, 97, 101
2.13015, 0.578537, 5.18072, 103, 120, 136
6.89704, 2.56606, -18.2795, 26, 30, 44
1.24418, 1.39283, 3.87782, 114, 114, 118
-2.36213, 2.55055, -5.81136, 126, 142, 161
1.44631, 1.55494, 3.7801, 123, 118, 114
1.59776, 1.52484, 3.6517, 90, 82, 81
1.28808, 1.53341, 3.82555, 97, 92, 90
2.10556, 1.03511, -2.70935, 109, 91, 99
2.04575, 14.0487, -134.744, 90, 86, 91
1.19426, 1.53268, 3.90677, 179, 168, 172
1.60953, 1.68611, 4.17435, 126, 122, 123
2.56969, 0.421403, 5.48502, 197, 184, 190
1.49983, 1.50173, 3.7026, 87, 86, 86
1.52231, 1.36713, 3.71468, 100, 94, 98
1.3228, 1.38895, 3.82833, 125, 119, 121
2.56094, 0.414021, 5.67716, 208, 210, 220
7.16866, 2.69456, -19.1063, 33, 38, 54
4.11522, 1.14982, -8.31501, 91, 96, 101
1.23908, 1.23439, 3.87428, 56, 67, 104
2.3782, 0.514625, 5.27824, 10, 16, 27
1.28902, 1.21083, 3.89072, 180, 163, 177
1.59882, 1.48394, 3.67014, 119, 118, 120
1.64117, 1.17853, 3.67987, 92, 115, 152
1.43736, 0.997944, 3.85496, 117, 105, 129
1.20257, 1.00455, 3.96675, 49, 63, 83
3.69095, 1.72806, -11.3002, 34, 38, 50
1.26659, 0.990897, 3.90593, 181, 168, 172
1.34408, 1.55091, 3.92692, 94, 88, 90
4.50649, 2.13865, -12.7999, 144, 138, 140
1.1976, 1.42126, 3.89752, 113, 106, 117
1.45587, 1.01433, 3.82222, 39, 62, 99
2.4759, 0.392225, 5.36382, 111, 75, 96
2.30745, 0.486876, 5.33517, 23, 9, 32
1.52432, 1.37486, 3.72388, 101, 95, 99
1.69829, 1.71857, 4.12046, 95, 87, 86
2.36524, 0.489646, 5.22013, 8, 17, 29
1.44926, 1.00255, 3.82534, 137, 152, 178
-0.43444, 2.08993, 10.2579, 55, 58, 61
1.24993, 0.990252, 3.90509, 138, 120, 155
1.53515, 1.37969, 3.72202, 163, 154, 159
2.41479, 0.684727, 5.15528, 97, 125, 142
2.08077, 1.08265, -2.78273, 88, 71, 83
1.64347, 1.5025, 3.65823, 118, 118, 122
1.579, 1.52093, 3.66504, 169, 166, 163
6.44483, 2.22982, -17.0978, 178, 180, 186
1.48983, 1.37319, 3.70254, 140, 139, 143
1.5877, 0.781882, 3.39077, 22, 24, 32
1.26546, 1.39485, 3.86952, 134, 128, 132
1.65419, 1.23489, 3.70288, 141, 143, 151
1.17633, 1.5266, 3.89025, 133, 122, 126
2.90612, 0.358333, 5.90915, 93, 61, 87
2.29157, 0.5107, 5.29638, 15, 20, 27
1.42928, 1.37796, 3.77767, 84, 80, 81
2.46837, 0.6418, 5.20386, 0, 9, 36
-2.86637, 1.92123, -4.37649, 187, 238, 201
0.302546, 0.0341961, 0.921891, 97, 49, 55
0.445727, -0.0238921, 0.934777, 60, 69, 79
-1.16342, 2.55995, -6.17511, 181, 203, 229
2.36962, 0.708077, 5.18275, 7, 16, 49
2.29917, 0.527041, 5.29193, 94, 108, 110
-1.45635, 2.42318, -5.81424, 226, 246, 255
2.08841, 1.07098, -2.73495, 125, 101, 105
4.33565, 0.86051, -7.64908, 135, 146, 146
1.33091, 1.20728, 3.93138, 154, 142, 157
14.3505, 5.0753, 16.3469, 74, 85, 96
6.38068, 2.46884, -16.7715, 144, 151, 159
1.44959, 1.51014, 3.72697, 114, 110, 115
-1.7013, -1.58803, 22.2099, 65, 66, 79
2.44916, 0.720759, 5.1706, 2, 26, 56
3.53815, 1.85508, -11.7962, 159, 162, 165
2.53595, 0.413626, 5.39227, 229, 223, 227
14.8675, 5.18664, 16.9545, 86, 101, 116
-2.64384, 2.11645, -4.92404, 105, 128, 145
7.28052, 2.61724, -19.4825, 97, 96, 105
2.42007, 0.66918, 5.1618, 14, 31, 47
3.39393, 0.602634, 5.44125, 85, 113, 148
-2.13228, 2.49594, -5.66202, 116, 138, 152
1.19357, 1.25047, 3.91424, 39, 54, 67
-0.960948, 2.56594, -6.27746, 184, 194, 222
2.23865, 0.57977, 5.23143, 24, 36, 52
1.2833, 0.986374, 3.9573, 145, 124, 153
1.15009, 1.53178, 3.91094, 97, 93, 94
3.53637, 1.88641, -11.8467, 69, 71, 79
1.49711, 0.994967, 3.77447, 90, 129, 163
-7.9534, 0.359163, 25.9183, 50, 20, 2
6.19164, 1.99791, -16.2764, 31, 30, 34
1.45511, 1.37528, 3.7725, 131, 129, 136
1.33832, 1.39449, 3.76183, 146, 146, 150
1.39151, 1.13569, 3.8327, 42, 81, 117
2.3939, 0.505406, 5.33461, 11, 15, 27
1.23193, 1.14876, 3.92773, 69, 85, 104
1.30106, 1.41112, 3.79984, 175, 171, 174
1.50255, 1.4166, 3.71189, 124, 120, 123
1.58185, 1.40512, 3.68235, 166, 166, 166
1.44387, 1.53477, 3.73041, 141, 127, 123
1.65289, 1.18952, 3.69116, 95, 109, 131
2.10174, 1.02063, -2.6786, 109, 90, 105
2.28327, 0.779819, 5.11732, 21, 50, 78
2.25241, 0.755531, 5.10687, 9, 37, 68
1.28324, 1.17485, 3.88197, 39, 53, 86
1.92751, 1.56208, -4.1103, 137, 121, 126
1.25241, 1.23076, 3.9166, 123, 136, 161
1.22903, 1.48961, 3.8809, 146, 140, 146
1.26167, 0.992138, 3.92803, 178, 164, 179
1.23621, 1.42196, 3.89032, 178, 171, 180
1.453, 1.38086, 3.73766, 91, 87, 92
1.39106, 1.13005, 3.81831, 42, 83, 120
1.20227, 0.976378, 3.9774, 109, 117, 132
4.39843, 1.05034, -8.25046, 39, 37, 46
2.43898, 0.674337, 5.22948, 57, 76, 94
1.23598, 1.25839, 3.91631, 56, 59, 80
4.02752, 1.90206, -11.9885, 123, 126, 129
1.99418, 1.53498, -4.04952, 127, 123, 124
2.4466, 0.709661, 5.15672, 0, 24, 58
1.5056, 1.45703, 3.49678, 132, 129, 126
2.50218, 0.628837, 5.72529, 40, 49, 61
1.23323, 1.42297, 3.86734, 129, 127, 136
2.444, 0.512687, 5.25707, 9, 26, 40
0.405658, -0.0179495, 0.865552, 71, 73, 81
1.4186, 1.40384, 3.73221, 86, 79, 88
1.50146, 1.33784, 3.47888, 122, 120, 131
0.68381, 0.0505618, 1.30261, 142, 150, 165
1.61346, 1.24442, 3.71522, 113, 115, 123
1.31743, 1.52034, 3.84487, 87, 81, 85
1.31942, 1.39308, 3.82936, 102, 97, 95
2.19255, 0.66008, 5.13874, 4, 24, 48
1.40367, 1.49684, 3.7511, 111, 105, 109
-2.41385, 2.38313, -5.57273, 198, 233, 255
-0.908231, 2.45704, -6.13197, 210, 220, 248
2.09203, 1.04899, -2.73303, 168, 152, 157
1.24384, 1.48903, 3.86528, 114, 108, 114
5.07471, 2.33993, -14.9944, 112, 118, 116
4.31638, 0.862096, -7.59799, 147, 160, 159
2.45309, 0.691125, 5.13922, 0, 26, 56
2.73534, 0.504281, 5.32983, 248, 255, 255
4.54865, 2.27785, -13.4065, 68, 67, 67
0.757448, 0.154474, -4.5934, 26, 33, 41
2.39288, 0.759681, 5.12591, 29, 54, 86
1.4033, 1.27042, 3.4096, 82, 78, 81
1.37384, 1.49297, 3.77644, 89, 85, 88
1.38218, 1.4163, 3.77098, 90, 86, 89
1.5933, 1.39135, 3.71429, 137, 136, 138
1.19703, 1.49525, 3.89612, 96, 83, 91
1.43478, 1.40435, 3.73864, 165, 158, 167
1.30752, 1.53318, 3.81249, 88, 87, 87
6.21976, -1.42424, -9.22706, 58, 43, 31
1.57063, 1.52542, 3.66806, 111, 108, 105
2.53565, 0.414541, 5.39173, 229, 223, 227
1.03299, 0.0913509, -1.3115, 57, 60, 63
1.68559, 0.809021, 3.39104, 152, 169, 181
-2.45993, 2.49976, -5.81794, 190, 214, 242
1.50277, 1.34233, 3.48897, 113, 108, 116
0.268066, 2.05433, -5.2047, 214, 228, 250
2.02358, 1.57372, -4.1521, 194, 197, 198
4.2755, 1.20981, -8.0465, 75, 82, 88
-2.3873, 2.52734, -5.79637, 96, 111, 137
2.16793, 0.0264764, 6.76597, 106, 109, 108
1.22452, 1.50372, 3.89244, 94, 89, 97
1.49227, 1.3822, 3.73176, 119, 118, 122
10.0167, -3.38277, -17.1293, 100, 104, 97
1.6281, 1.6148, -4.22114, 159, 33, 49
1.36407, 1.2185, 3.93376, 59, 79, 113
2.24187, 0.473663, 5.20269, 33, 11, 29
-1.55855, 2.62149, -6.2346, 166, 175, 185
-1.20737, 2.64735, -6.39637, 181, 203, 229
1.30432, 1.52729, 3.806, 105, 104, 106
0.40379, -0.017403, 0.866149, 144, 151, 157
2.23655, 0.219495, 6.62606, 101, 96, 104
2.4381, 0.726527, 5.15669, 5, 31, 60
1.57686, 1.53442, 3.66602, 89, 86, 83
2.20775, 0.686635, 4.70918, 24, 55, 82
2.33192, 0.653723, 5.13665, 27, 44, 58
0.0353505, 2.35526, -5.9305, 175, 180, 196
1.44677, 1.49452, 3.71115, 136, 132, 137
4.60295, 0.334557, 8.12195, 113, 124, 133
2.26005, 0.176746, 6.72858, 42, 60, 67
6.97219, 0.225335, 18.643, 19, 31, 37
2.20463, 0.724326, 5.16776, 22, 31, 52
2.16224, 0.717442, 5.13035, 114, 137, 154
1.62034, 1.25899, 3.72581, 108, 113, 120
2.2321, 0.62403, 5.18055, 24, 28, 53
10.1317, -3.43578, -17.3118, 92, 96, 89
1.18436, 1.53094, 3.93278, 186, 180, 182
-0.16262, 2.20575, -5.36258, 129, 129, 133
1.61101, 1.62586, -4.21096, 255, 174, 176
-0.338569, 2.49425, -6.05675, 178, 171, 182
1.25924, 0.989174, 3.90811, 191, 177, 192
1.15433, 1.50739, 3.9363, 77, 71, 77
1.64259, 1.50263, 3.65483, 118, 118, 122
1.49291, 1.49394, 3.70415, 132, 132, 134
1.63828, 1.41615, 3.66929, 160, 159, 163
1.26459, 1.41959, 3.84275, 104, 100, 101
1.20206, 1.44418, 3.94926, 119, 118, 122
5.10582, 1.60211, -13.3673, 51, 50, 52
-1.64823, 2.59784, -6.17822, 210, 218, 237
-2.69037, 2.18154, -5.02217, 134, 150, 169
1.27374, 1.38966, 3.86567, 130, 124, 130
1.47072, 1.53299, 3.71425, 106, 102, 105
-2.26732, 2.59533, -5.90358, 157, 185, 202
2.02058, 1.51659, -4.02946, 197, 194, 189
-0.333058, 2.08922, 9.58231, 72, 73, 67
-2.18871, 2.42992, -5.5312, 173, 193, 204
1.26927, 1.41627, 3.81841, 120, 116, 119
3.49122, 1.77926, -12.2279, 49, 45, 50
1.23372, 1.14313, 3.91762, 64, 84, 120
2.29399, 0.529367, 5.28904, 112, 129, 132
-2.48062, 2.51168, -5.85273, 202, 234, 255
-18.7232, 0.663965, -47.3192, 37, 36, 40
2.26786, 0.049526, 6.79288, 89, 108, 126
1.99374, 1.5282, -4.0344, 150, 146, 147
2.09887, 1.02825, -2.68354, 167, 142, 164
1.26424, 1.22698, 3.95134, 41, 51, 77
2.24566, 0.222953, 6.67689, 94, 94, 98
3.07797, 28.2371, -269.41, 172, 169, 166
0.474161, 0.263167, -0.629351, 113, 106, 115
2.19584, 0.543134, 5.20374, 6, 10, 35
10.229, -3.46495, -17.5289, 96, 105, 98
2.66651, 0.674535, 6.09061, 18, 27, 39
2.24536, 0.549978, 5.28641, 9, 17, 36
2.30115, 0.73861, 5.08354, 27, 51, 81
-0.405352, 2.52082, -6.11529, 207, 206, 208
4.45149, 1.64763, -13.1833, 72, 70, 81
-2.72858, 2.18172, -5.02348, 160, 182, 192
1.26519, 1.41733, 3.84471, 95, 89, 91
1.42701, 1.37711, 3.77143, 84, 80, 81
1.99136, 1.52583, -4.02541, 162, 158, 159
3.81471, 0.209282, 8.1647, 89, 94, 103
2.33687, 0.679159, 5.103, 0, 17, 47
1.53076, 1.54094, 3.69915, 97, 88, 91
1.27419, 1.39182, 3.87186, 130, 124, 130
3.91099, 1.8325, -12.4441, 52, 58, 71
-0.381359, 2.05485, 10.2069, 71, 71, 71
1.59436, 1.41042, 3.64673, 123, 122, 126
1.50967, 1.53547, 3.76813, 162, 162, 156
2.36199, 0.705868, 5.12714, 8, 17, 40
10.4076, -3.53534, -17.832, 96, 105, 98
8.22836, -1.32181, -13.5313, 69, 68, 70
2.4281, 0.589936, 5.26408, 17, 17, 35
2.41692, 0.613144, 5.15972, 6, 16, 46
1.58054, 1.53658, 3.65988, 100, 95, 93
1.33083, 1.00654, 3.83428, 195, 161, 169
1.99751, 1.53075, -4.04398, 131, 123, 122
1.32172, 1.42265, 3.81206, 119, 113, 117
3.58055, 1.77346, -12.011, 32, 31, 42
1.42799, 1.41791, 3.75922, 100, 94, 98
2.4267, 0.591558, 5.24753, 10, 15, 31
2.14446, 0.503238, 5.20645, 156, 115, 123
5.2771, 2.49738, -22.6188, 60, 68, 85
-1.5559, 2.58254, -6.15987, 199, 201, 225
2.73378, 0.483032, 5.38329, 46, 61, 76
2.37551, 0.577766, 5.23696, 47, 56, 68
2.70289, 0.498476, 5.31266, 39, 55, 65
2.3816, 0.77259, 5.1348, 14, 46, 78
14.7309, 5.15807, 16.7286, 81, 93, 99
3.19398, -0.712777, 12.2959, 68, 75, 81
-0.316039, 2.36558, -5.74498, 190, 185, 193
2.17605, 0.578507, 5.13604, 112, 129, 141
-2.41467, 2.56588, 9.52627, 76, 76, 72
1.27241, 1.43208, 3.86234, 147, 143, 144
2.3444, 0.76897, 5.12298, 0, 18, 55
1.55586, 1.38455, 3.69645, 147, 143, 146
2.18884, 0.564714, 5.20546, 43, 52, 64
1.26021, 1.18856, 3.91274, 117, 142, 174
1.12717, 0.485971, 1.52617, 64, 68, 63
1.27245, 1.40608, 3.89747, 145, 141, 144
2.72543, 0.504379, 5.32576, 216, 229, 240
2.15018, 0.536122, 5.18958, 0, 10, 28
1.18767, 1.009, 2.72048, 92, 88, 91
-0.324203, 2.41796, -5.8628, 190, 185, 193
3.04333, -0.656578, 11.7785, 87, 97, 102
2.57744, 0.834935, 6.20762, 0, 12, 43
1.40841, 1.53597, 3.75382, 99, 90, 93
2.4641, 0.69676, 5.17899, 0, 28, 58
2.29984, 0.553383, 5.22479, 25, 28, 49
-1.55478, 2.57835, -6.14342, 187, 185, 201
1.88316, -0.0695041, 6.47829, 41, 49, 46
1.24994, 1.47491, 4.09982, 183, 182, 186
2.12867, 1.1561, -2.86647, 206, 184, 176
4.06249, -0.811789, 14.7469, 127, 133, 135
2.38322, 0.764172, 5.12797, 21, 49, 84
2.19066, 0.665817, 5.14873, 0, 14, 42
2.15237, 0.137262, 6.67042, 58, 52, 56
1.55351, 1.38463, 3.6928, 147, 143, 146
1.58258, 1.50092, 3.67298, 109, 103, 109
-0.450599, 2.06149, 10.0607, 19, 19, 21
0.404425, 0.0136396, 0.77955, 199, 203, 215
-6.13287, -1.1866, -17.4081, 118, 128, 135
1.59834, 1.42233, 3.67353, 113, 111, 118
1.55869, 1.39173, 3.72275, 112, 108, 111
2.08644, 1.06241, -2.73324, 172, 151, 160
1.27919, 1.41935, 3.8276, 126, 120, 126
1.2658, 1.18122, 3.76175, 163, 143, 146
2.07634, 0.503874, 4.53579, 22, 28, 41
1.50018, 1.50382, 3.71803, 105, 104, 104
1.52462, 1.41856, 3.70607, 89, 88, 92
1.39241, 1.13666, 3.8397, 47, 88, 125
1.47979, 1.49065, 3.71882, 170, 166, 169
2.08551, 1.00805, -2.64117, 197, 173, 177
3.63055, -0.720017, 13.4824, 83, 96, 95
1.30266, 1.18918, 3.88353, 159, 145, 160
4.32951, 1.10525, -7.99164, 228, 235, 241
1.49199, 1.38085, 3.72906, 119, 118, 122
2.32043, 0.729581, 5.03213, 105, 137, 157
1.31662, 1.21931, 3.97601, 67, 64, 85
