0.0019683679161228065,-0.0034188160318432,0.00358997823320801,0.7411764705882353,0.6666666666666666,0.5019607843137255
0.0019505533947497054,-0.0034273130080010043,0.0036405814089643723,0.7607843137254902,0.6862745098039216,0.5215686274509804
0.00196110255641544,-0.0034347473915331372,-0.0003359719534477757,0.8549019607843137,0.7333333333333333,0.596078431372549
0.0020605155522507536,-0.003372254374193607,0.0035512022780004103,0.8,0.7176470588235294,0.5725490196078431
0.00204618767174141,-0.0033801228250006136,0.0035881300165901404,0.7568627450980392,0.6627450980392157,0.5215686274509804
0.0019692547126151233,-0.003432992891231644,-0.00034951950172601307,0.807843137254902,0.6823529411764706,0.5568627450980392
0.001971285177013675,-0.003425202036635549,-0.000550039299725691,0.8745098039215686,0.7568627450980392,0.611764705882353
0.0024288414014132175,-0.0031392980268801296,-0.002598489593341988,0.5686274509803921,0.5411764705882353,0.5450980392156862
0.0019465096592132605,-0.003429853968951351,0.0036092137833963578,0.5176470588235295,0.41568627450980394,0.25098039215686274
0.0019674501069374835,-0.003426239616230076,-0.000555836453714104,0.7686274509803922,0.6509803921568628,0.5058823529411764
0.0019691024655873043,-0.0034262756239529786,-0.0005468004248812741,0.7803921568627451,0.6627450980392157,0.5176470588235295
0.0019434157078247049,-0.003431324606663456,0.0036094153848856983,0.5294117647058824,0.44313725490196076,0.2823529411764706
0.0019503585217717646,-0.0034269729244433317,0.003659292351880465,0.7568627450980392,0.6980392156862745,0.5333333333333333
0.001976209404285292,-0.0034266467931793197,-0.0005087016034730432,0.6705882352941176,0.5529411764705883,0.42745098039215684
0.001977551611307098,-0.0034038783130668445,0.004234522421054551,0.41568627450980394,0.2627450980392157,0.12156862745098039
0.001956090594383879,-0.003425065324781864,0.003600061394282955,0.4196078431372549,0.3176470588235294,0.15294117647058825
0.0019118678497431776,-0.003446884253091008,0.0036090782831395968,0.34901960784313724,0.24705882352941178,0.13333333333333333
0.0014831961958647057,-0.0036540784608790613,0.0033542125066702926,0.596078431372549,0.5450980392156862,0.48627450980392156
0.00200356186595243,-0.0034142377996843713,-0.0013761460133977573,0.34509803921568627,0.38823529411764707,0.4588235294117647
0.0019669464264383883,-0.0034336650325998918,-0.0003377933885146899,0.6862745098039216,0.5686274509803921,0.44313725490196076
0.001963682015606617,-0.0034350321547418445,-0.0003145437424043209,1.0,0.9372549019607843,0.8
0.0019673474077918887,-0.003433451787731859,-0.00034766202176407616,0.6196078431372549,0.5058823529411764,0.3686274509803922
0.0019232476240730486,-0.003441783589910826,0.0035854272784033147,0.7803921568627451,0.6941176470588235,0.5333333333333333
0.0019676979646440214,-0.0034325128007629212,-0.00037686969913557615,0.6470588235294118,0.5333333333333333,0.396078431372549
0.0019659289132218124,-0.0034097107567900354,0.004244355650526483,0.4666666666666667,0.3137254901960784,0.17254901960784313
0.0019284631127860009,-0.003438273687973177,0.0036218429131211695,0.8274509803921568,0.7607843137254902,0.615686274509804
-0.00019701359979346932,-0.004447355149679721,0.005478939675926829,0.6941176470588235,0.8156862745098039,0.7647058823529411
0.001961991127469939,-0.0034335164302891487,-0.000374134796428607,0.7529411764705882,0.6509803921568628,0.5098039215686274
0.002323751165403272,-0.003201920860845142,-0.0022412117359466147,0.8235294117647058,0.7686274509803922,0.7215686274509804
0.0019767495246013032,-0.003425298261227487,-0.0005387526742506278,0.6352941176470588,0.5294117647058824,0.4
0.0026247112141264497,-0.0030270655430798456,-0.003379432632268253,0.5725490196078431,0.5294117647058824,0.5843137254901961
0.0015274441291337868,-0.003650008835706002,0.003294041947426299,0.7411764705882353,0.6823529411764706,0.5725490196078431
0.002435224316074191,-0.0031352112972635347,-0.0026569688204605736,0.5843137254901961,0.5647058823529412,0.6
0.0012903722763119166,-0.0036603702596701647,0.0018544564668003481,0.6823529411764706,0.788235294117647,0.7843137254901961
0.0019680008977653253,-0.003428754805986962,-0.0005265252719475619,0.7254901960784313,0.6235294117647059,0.4823529411764706
0.0005657948176025693,-0.004044061330314333,0.0016919457145800777,0.4666666666666667,0.5529411764705883,0.5254901960784314
0.0029838933136180686,-0.002817213361047029,-0.004539306345878087,0.47843137254901963,0.42745098039215684,0.4745098039215686
0.0017518418125508038,-0.00351726993940938,0.0041985284764910185,0.6313725490196078,0.592156862745098,0.5294117647058824
0.0024475482211646356,-0.003128388084885395,-0.002674942995888192,0.5647058823529412,0.5529411764705883,0.5882352941176471
0.0020389331888294037,-0.0033840862034704247,0.003542589691162369,0.8980392156862745,0.8156862745098039,0.6470588235294118
0.0019227404409267535,-0.0034312615176676996,0.004250162244156627,0.5725490196078431,0.47058823529411764,0.3568627450980392
0.001956763208828794,-0.003436075161124964,-0.00033263827601553303,0.8509803921568627,0.7254901960784313,0.6078431372549019
0.0018608329142311187,-0.0034884237620469156,0.001011574484675528,0.4823529411764706,0.5490196078431373,0.5529411764705883
0.0023095317112151207,-0.003210616005004906,0.0025510986904501223,0.5529411764705883,0.5294117647058824,0.4470588235294118
0.0019710962902288022,-0.0034242995887652588,-0.0005493509937920985,0.7764705882352941,0.6705882352941176,0.5411764705882353
0.0015244397155366296,-0.0036516456450379534,0.0033021904588852093,0.7411764705882353,0.6823529411764706,0.5725490196078431
0.001965988440848853,-0.0034327081746270585,-0.00038039968052489296,0.6392156862745098,0.5176470588235295,0.3803921568627451
0.001953945374519785,-0.003435129245214662,-0.0003860482905102749,0.7411764705882353,0.6313725490196078,0.48627450980392156
0.0019740933288293987,-0.0034268069707335995,-0.0005264451231211454,0.6352941176470588,0.5294117647058824,0.4
0.0019667764549348467,-0.003433739826174645,-0.00032994770767603884,0.8901960784313725,0.7843137254901961,0.6627450980392157
0.001969466882382517,-0.003407923825703677,0.0042268939838452525,0.4117647058823529,0.2549019607843137,0.12156862745098039
0.001964533482064358,-0.0034330242142141115,-0.0003676454117980655,0.6509803921568628,0.5333333333333333,0.38823529411764707
0.0008360349943119737,-0.0038920592917650347,0.0011158265168176988,0.5176470588235295,0.6039215686274509,0.5764705882352941
0.0019320793587455382,-0.0034260557326523805,0.00424967262212455,0.5647058823529412,0.4549019607843137,0.3411764705882353
0.0019738753537337263,-0.0034265436586955102,-0.0004976941831921428,0.6705882352941176,0.5882352941176471,0.47058823529411764
0.0019696105966594967,-0.0034313024571991555,-0.00039809981637266355,0.6274509803921569,0.5098039215686274,0.3843137254901961
0.0019663930340622798,-0.0034318546224636763,-0.0003872696945724433,0.5647058823529412,0.43137254901960786,0.3058823529411765
0.0019731541201467987,-0.0034267217618760156,-0.0005359862440183424,0.5803921568627451,0.4627450980392157,0.33725490196078434
0.0020371767481673453,-0.0033039780885389647,-0.003609518437788885,0.3215686274509804,0.3568627450980392,0.39215686274509803
0.0008529164166848219,-0.003885292461384059,0.001065712874676376,0.4627450980392157,0.5450980392156862,0.5294117647058824
0.001963890000592091,-0.0034347610735775886,-0.00033168529245874556,1.0,0.9058823529411765,0.7686274509803922
0.0019500402594037239,-0.003436471692499182,-0.00037455594092826547,0.8392156862745098,0.7450980392156863,0.6039215686274509
0.0021325241108044,-0.0033136778121462224,-0.0013777219982043262,0.48627450980392156,0.49019607843137253,0.5803921568627451
0.0019263127303708525,-0.003451252120179864,0.00014703207948493847,0.5725490196078431,0.6196078431372549,0.6784313725490196
0.0019207815882038538,-0.003432840116007891,0.004231169559703104,0.6313725490196078,0.5294117647058824,0.41568627450980394
0.0019692709934511455,-0.003427002440542965,-0.0005450004702024152,0.7215686274509804,0.6,0.4627450980392157
0.001085303605008584,-0.0038716694390675335,0.0033658601931423455,0.5529411764705883,0.48627450980392156,0.5803921568627451
0.0026558723698122413,-0.0030042662852460098,-0.0032969261558182545,0.5882352941176471,0.5607843137254902,0.5647058823529412
0.0018621031771611906,-0.003451354503320964,-1.0719201434735828e-05,0.09411764705882353,0.15294117647058825,0.2823529411764706
0.001977145478718008,-0.003425984043116701,-0.0005258693507980196,0.6549019607843137,0.5529411764705883,0.4117647058823529
0.0019277267331439672,-0.0034392346203519393,0.003589803382704053,0.8196078431372549,0.7411764705882353,0.5882352941176471
0.0010845189132133392,-0.0038722684350586158,0.0033582328680910396,0.5882352941176471,0.5254901960784314,0.592156862745098
0.002404290266730526,-0.0031163664899762833,0.0027262115020120045,0.5176470588235295,0.48627450980392156,0.4588235294117647
0.0023416467787625486,-0.003191299721802841,-0.002310266382514017,0.6313725490196078,0.592156862745098,0.6313725490196078
0.002134776402898195,-0.0033124792138675527,-0.0013909424123664084,0.41568627450980394,0.42745098039215684,0.5098039215686274
0.0021388939459750494,-0.0033328938238856394,0.003925628348496462,1.0,1.0,0.9019607843137255
0.001863306683142954,-0.00348714075449452,0.0010297219607104465,0.13725490196078433,0.1803921568627451,0.23137254901960785
0.001935866666425651,-0.0034272941061595165,0.0019006869594124837,0.4549019607843137,0.3764705882352941,0.25098039215686274
0.001993568635034362,-0.003371182705395655,-0.0005481979895679322,0.2235294117647059,0.2549019607843137,0.22745098039215686
0.002236034774995311,-0.003259184890158235,0.002300105199867317,0.3764705882352941,0.34509803921568627,0.36470588235294116
-0.0009234216734053177,-0.004723079637218064,0.007382644631070345,0.10588235294117647,0.10588235294117647,0.10588235294117647
0.001421036407186734,-0.0037003893941961064,0.0035434968952302672,0.6627450980392157,0.592156862745098,0.6235294117647059
0.0002794474194576757,-0.004217614761583737,0.0031941516778528096,0.2627450980392157,0.6392156862745098,0.6705882352941176
0.0012891184609326659,-0.0036615116291636583,0.0018450161893380974,0.5686274509803921,0.7058823529411765,0.7411764705882353
0.0019712141361040466,-0.00343187384338559,-0.0003499113604272566,0.8627450980392157,0.7372549019607844,0.611764705882353
0.0021239002930004466,-0.0033410105856630477,0.0036071650715739094,0.6431372549019608,0.5372549019607843,0.40784313725490196
0.0019494886933997262,-0.0034301753796050836,0.003491463787091647,0.45098039215686275,0.3254901960784314,0.1450980392156863
0.002389200458030337,-0.0031231244489543526,0.0026694951052987814,0.18823529411764706,0.14901960784313725,0.11372549019607843
0.0019434124946822726,-0.003431743624188779,0.0036187863178725457,0.4392156862745098,0.33725490196078434,0.17254901960784313
-0.00017829452893289337,-0.004432482772303261,0.005493215566846588,0.6901960784313725,0.7450980392156863,0.6862745098039216
0.0019622571329381885,-0.0034340521081139067,-0.0003835327268020302,0.5254901960784314,0.4,0.27450980392156865
0.0014168708555378172,-0.0035671176590048427,0.0027312115904094604,0.5686274509803921,0.6235294117647059,0.5647058823529412
0.0019513858617067597,-0.0034283094699500043,0.0034976822524411246,0.48627450980392156,0.396078431372549,0.22745098039215686
0.001979768644623937,-0.0034251393370856764,-0.0005290613860185624,0.7098039215686275,0.611764705882353,0.4627450980392157
0.0019714237494771977,-0.003425771537363884,-0.0005457383182389488,0.7176470588235294,0.6039215686274509,0.4666666666666667
0.0019652348003562684,-0.003432978680802943,-0.00038337924646364294,0.615686274509804,0.49411764705882355,0.3568627450980392
0.0010683678024201333,-0.0036153065979685965,0.0007696344508183971,0.7098039215686275,0.8,0.788235294117647
0.0016060041628442624,-0.0035835826283695717,0.0038486324069969663,0.3137254901960784,0.23529411764705882,0.21568627450980393
0.0019770562438676995,-0.00342620771230442,-0.0005265983853706263,0.6901960784313725,0.5764705882352941,0.4392156862745098
0.002127135872892893,-0.003339153823496049,0.0036148330442204862,0.6392156862745098,0.5372549019607843,0.4235294117647059
0.001969466882382517,-0.003407923825703677,0.0042268939838452525,0.4117647058823529,0.2549019607843137,0.12156862745098039
0.0019745827563144775,-0.0034259723364054714,-0.0005087573693741078,0.7607843137254902,0.6784313725490196,0.5607843137254902
0.0013979147620594473,-0.0037032708196054805,0.0020580389090585735,0.7607843137254902,0.7058823529411765,0.6588235294117647
0.0013113264187740459,-0.0037327584184917895,0.003036149633300613,0.5019607843137255,0.396078431372549,0.45098039215686275
0.0019767998598648343,-0.0034251914060248706,-0.0004996011951552275,0.5450980392156862,0.4392156862745098,0.3176470588235294
0.00190751628679992,-0.0034198224189895586,-0.00024578577667702314,0.25882352941176473,0.2980392156862745,0.3254901960784314
0.0020718743196738052,-0.00333005568695146,-0.0008032913032937284,0.43137254901960786,0.49019607843137253,0.4588235294117647
0.0019560111692877415,-0.0034352291305523694,-0.00034741293328328216,0.9058823529411765,0.792156862745098,0.6549019607843137
0.001952183769123099,-0.0033932878094578367,-0.0004235165264860976,0.41568627450980394,0.4470588235294118,0.4196078431372549
-0.0015870449450308417,-0.005394909104314665,0.010783311506080903,0.9607843137254902,0.8901960784313725,0.9215686274509803
0.0019675709284595164,-0.0034330141906176543,-0.00035186102758479585,0.8470588235294118,0.7450980392156863,0.6039215686274509
0.0016063813583572844,-0.0036180165441425526,0.0008063417008208909,0.5764705882352941,0.5490196078431373,0.611764705882353
0.001297703089998718,-0.0036794396992600774,0.002394368667091671,0.5019607843137255,0.5725490196078431,0.5058823529411764
0.0013103260181886948,-0.0036525471790155336,0.0055294205336232,0.19215686274509805,0.1607843137254902,0.15294117647058825
-2.2553915564862066e-05,-0.0043940110449435755,0.004475008784442123,0.12549019607843137,0.1450980392156863,0.08627450980392157
0.0014428483472826686,-0.003690776962435561,0.0033928701719817033,0.8235294117647058,0.7450980392156863,0.6705882352941176
0.0018476196223548547,-0.003455186886616588,0.0009163527529885595,0.6392156862745098,0.6039215686274509,0.611764705882353
0.0024144407008797326,-0.0031100571005297966,0.0026311260904656394,0.1803921568627451,0.1411764705882353,0.10588235294117647
0.000550610516655424,-0.0038146645650840773,0.0017939915698097584,0.4549019607843137,0.4470588235294118,0.47058823529411764
0.001907109594528462,-0.0034606203859030033,0.0022591392395339585,0.4470588235294118,0.43137254901960786,0.5803921568627451
0.0019265832617387055,-0.003429375565943013,0.004274210067517789,0.6901960784313725,0.5882352941176471,0.4745098039215686
0.0005476097400360861,-0.00381641561199917,0.0018027751526057264,0.4549019607843137,0.4470588235294118,0.47058823529411764
0.001951609431241498,-0.0034355856576225824,-0.0003812659521411978,0.8392156862745098,0.7450980392156863,0.6039215686274509
2.331671215109591e-05,-0.004442145230214822,0.005029807877441585,0.5607843137254902,0.5019607843137255,0.37254901960784315
0.0019530041627615015,-0.0034369681388835968,0.0006338300365227716,0.1411764705882353,0.20784313725490197,0.24313725490196078
0.002045187981869391,-0.0033859289902897012,0.0017762471817627133,0.13333333333333333,0.0784313725490196,0.19607843137254902
0.0011474628740895788,-0.0038299653769048076,0.00433210787742688,0.8784313725490196,0.8313725490196079,0.7647058823529411
0.0020969799073250078,-0.0033590923412591812,0.0017952863244726151,0.2823529411764706,0.27450980392156865,0.3411764705882353
0.002394199489813857,-0.003121242293504463,0.0027003493168151426,0.15294117647058825,0.10588235294117647,0.09019607843137255
0.002051598638207856,-0.003339552285213919,-0.0007448351322415857,0.5411764705882353,0.5764705882352941,0.5686274509803921
0.0021280092514947583,-0.0033390792995988947,0.003593672701886774,0.7411764705882353,0.6274509803921569,0.47058823529411764
0.001510912502247997,-0.003649433960284907,0.001598093361364853,0.3843137254901961,0.403921568627451,0.5215686274509804
0.0024560165823248326,-0.0031236677915207943,-0.002698230404195693,0.5647058823529412,0.5529411764705883,0.5882352941176471
0.0014274072739404607,-0.003697304188121839,0.0035320762835945765,0.7372549019607844,0.6627450980392157,0.6784313725490196
0.0020579886096139103,-0.0033124695036942623,-0.0010953731846392954,0.25882352941176473,0.3176470588235294,0.28627450980392155
0.00129129726414668,-0.0037280291321890972,0.0014360986498703837,0.3176470588235294,0.35294117647058826,0.2980392156862745
0.0020709491386821603,-0.003305753599954639,-0.0011269025911651758,0.25098039215686274,0.3215686274509804,0.28627450980392155
0.0019662740625749843,-0.0034334925879297546,-0.0003715275709854854,0.7137254901960784,0.592156862745098,0.4549019607843137
0.0020035810110049443,-0.003365784545689494,-0.0005790865126321009,0.1607843137254902,0.1803921568627451,0.16470588235294117
-0.0014513675493210312,-0.004903088779912629,0.004884400104365661,0.17254901960784313,0.12941176470588237,0.17647058823529413
0.001978829091615998,-0.003425066140775784,-0.0005384394406149201,0.6196078431372549,0.5176470588235295,0.3764705882352941
0.001242062933573425,-0.0036751077258322263,0.0016491832844059721,0.29411764705882354,0.396078431372549,0.4
0.0020344266886422853,-0.003344560948290105,-0.000832919155518539,0.28627450980392155,0.3411764705882353,0.3215686274509804
-0.0002944170530568328,-0.004496161255494058,0.005255927729185828,0.5803921568627451,0.6235294117647059,0.5686274509803921
0.0017042483247260037,-0.003495474971365687,0.0036376895887334426,0.6862745098039216,0.6627450980392157,0.796078431372549
0.0018747562226409053,-0.0034313685190035716,0.002514391928122978,0.7764705882352941,0.7725490196078432,0.6588235294117647
0.0013158612365602878,-0.0036459939805721054,0.0018878559258833103,0.47843137254901963,0.5803921568627451,0.611764705882353
0.0023192577396567546,-0.0032053154109456753,0.002459057198209439,0.5450980392156862,0.5098039215686274,0.4392156862745098
0.0019613952498465912,-0.003432608125656389,-0.0003980120349536157,0.7333333333333333,0.615686274509804,0.47058823529411764
-0.0004459596878692938,-0.004716430902140604,0.0060272917266034265,0.615686274509804,0.5450980392156862,0.5254901960784314
0.001165557025761216,-0.0036897672868621634,0.00096866150616602,0.1607843137254902,0.1450980392156863,0.1450980392156863
0.0006284048847374645,-0.003979837313528619,0.0016263217012182393,0.1568627450980392,0.12941176470588237,0.13333333333333333
0.0021510142211340058,-0.0032994459510122787,-0.0014331732753972539,0.6784313725490196,0.6862745098039216,0.7333333333333333
0.002118396530848735,-0.0033431973915941772,0.003625734320760044,0.6627450980392157,0.5764705882352941,0.49019607843137253
0.0020916341447112506,-0.0033512982316725557,-0.0011044605764985451,0.2627450980392157,0.15294117647058825,0.47843137254901963
0.0021400426325707657,-0.0033053816527567094,-0.0014032445459551215,0.6549019607843137,0.6588235294117647,0.7176470588235294
0.0017387524100766574,-0.0035238669511679956,0.004208316295577365,0.5137254901960784,0.4627450980392157,0.403921568627451
0.0018339307835810643,-0.003478599980180864,0.004141561517513417,0.20392156862745098,0.1411764705882353,0.10196078431372549
0.0017517431357363731,-0.003516688553834224,0.004215710134886612,0.4470588235294118,0.38823529411764707,0.32941176470588235
0.0002490596567835214,-0.004322683944427039,0.0032271890631492056,0.4549019607843137,0.4588235294117647,0.5176470588235295
0.0011085116102053294,-0.003857237855607008,0.001422252056782883,0.47843137254901963,0.5058823529411764,0.5411764705882353
0.0019163637552286697,-0.0034128018154368014,-0.00044371714585592304,0.5254901960784314,0.5725490196078431,0.5529411764705883
0.0018952700698015692,-0.00342419347134662,-0.000369397976388108,0.5764705882352941,0.611764705882353,0.6039215686274509
0.0017243027017855195,-0.003556246794630907,0.0020490421868159924,0.41568627450980394,0.40784313725490196,0.4117647058823529
0.0018803960520618525,-0.0034417060369798884,-8.230776364692579e-05,0.49411764705882355,0.6862745098039216,0.7333333333333333
0.0019560750228099174,-0.0034357396831304434,-0.0003730839359330417,0.6784313725490196,0.5607843137254902,0.41568627450980394
0.0020536770922163967,-0.003346400648429854,0.002168838141042567,0.20784313725490197,0.18823529411764706,0.16862745098039217
0.0017435494710170245,-0.003529497772638182,0.0018320357233244195,0.7137254901960784,0.6549019607843137,0.5254901960784314
0.0023358396620228733,-0.0031950059974032254,-0.0022786382109621834,0.8235294117647058,0.7686274509803922,0.7215686274509804
0.0026278988974456495,-0.0030252144002572276,-0.003394094315018162,0.5725490196078431,0.5294117647058824,0.5843137254901961
0.0020152733006004496,-0.003402059386926836,0.0018828066953013047,0.4745098039215686,0.47058823529411764,0.5803921568627451
0.0021910240625930507,-0.003284112187822578,0.002684231663432812,0.4549019607843137,0.396078431372549,0.3176470588235294
0.0023944656429425106,-0.0031850181973167913,0.0036167501964956524,1.0,1.0,0.8862745098039215
0.0014374911202358228,-0.003693688539732052,0.0034032040516334128,0.8235294117647058,0.7450980392156863,0.6705882352941176
0.0026349034858640817,-0.0030731693990531557,0.004548850754040934,0.9411764705882353,0.7647058823529411,0.6901960784313725
0.0017257528224943692,-0.003507832123135886,0.0034646379446041176,0.4980392156862745,0.45098039215686275,0.3568627450980392
0.001955922214903069,-0.0033917868646794157,-0.0004499588266885749,0.3803921568627451,0.4117647058823529,0.3843137254901961
0.0009096007216700131,-0.0035965016472500324,0.0008508189144721326,0.40784313725490196,0.4235294117647059,0.4235294117647059
0.0018987733287374013,-0.003436793751372216,0.0026165802903566487,1.0,0.9647058823529412,0.8784313725490196
0.0010683678024201333,-0.0036153065979685965,0.0007696344508183971,0.7098039215686275,0.8,0.788235294117647
0.0002750512750040677,-0.004219580593929825,0.0032111245010392215,0.2980392156862745,0.6470588235294118,0.6745098039215687
0.0019574243158290176,-0.003414486830676175,0.004214908682148376,0.40784313725490196,0.2823529411764706,0.16470588235294117
-0.0022518148853615935,-0.005579001956445535,0.007281425526122017,0.4392156862745098,0.5411764705882353,0.5450980392156862
0.002594790854783217,-0.003088784268077285,0.004252897959078316,1.0,1.0,0.9254901960784314
0.002588261653243549,-0.003120544245069161,0.004097360384511134,1.0,0.9803921568627451,0.9921568627450981
0.0018553530344267658,-0.003491825159460178,0.0010049414832922967,0.20392156862745098,0.25098039215686274,0.2901960784313726
0.0016766349460324507,-0.0035811358062158897,0.0032017341395748186,0.24705882352941178,0.2196078431372549,0.4235294117647059
0.002405444229807929,-0.0031154699499914315,0.0027424119906551987,0.5176470588235295,0.49411764705882355,0.4470588235294118
0.0023508407665593267,-0.003144608434756745,0.002469931591037872,0.16470588235294117,0.11372549019607843,0.10980392156862745
0.0019190153519448951,-0.00345206082200281,-0.00015192082767235147,0.6980392156862745,0.6627450980392157,0.592156862745098
0.0014368978835195526,-0.00369366101982503,0.0034142838226572246,0.8274509803921568,0.7607843137254902,0.6784313725490196
0.002355509711888715,-0.0031415827679193873,0.002489466445120291,0.17254901960784313,0.12941176470588237,0.10588235294117647
0.0017455589090977046,-0.003520169481534234,0.004196636328608594,0.5137254901960784,0.4627450980392157,0.403921568627451
0.001973687696343504,-0.003426174520419734,-0.000505797551976809,0.8156862745098039,0.7372549019607844,0.6039215686274509
0.001962455033243522,-0.003433651036723993,-0.00040397269843569556,0.5529411764705883,0.43529411764705883,0.30980392156862746
0.0011427720020312918,-0.003825747418143254,0.002655387687899033,0.3686274509803922,0.2627450980392157,0.23921568627450981
0.0015823098857082388,-0.00364569611278533,0.0023851857661517897,0.34901960784313724,0.37254901960784315,0.42745098039215684
0.0017400238061941588,-0.0035563519629299104,0.0008162486943740511,0.3215686274509804,0.34901960784313724,0.4117647058823529
0.002845338935646128,-0.0029521517456307096,0.004607588448601454,0.8862745098039215,0.8274509803921568,0.7176470588235294
0.001582694726524638,-0.003637095607066164,0.0024849835385782424,0.9058823529411765,0.8352941176470589,0.6627450980392157
0.0013612900018948873,-0.003623758468029294,0.0015809262592904319,0.7764705882352941,0.8313725490196079,0.8117647058823529
0.0013521081652241077,-0.0037022826781605567,0.0034855985735237228,0.7058823529411765,0.6431372549019608,0.6039215686274509
0.0011081041126103984,-0.003858752104235404,0.001404393075168257,0.1843137254901961,0.23137254901960785,0.27058823529411763
0.0019639893356988136,-0.0034286167539249895,-0.0004991157533125775,0.7333333333333333,0.6352941176470588,0.5058823529411764
0.0006334820988336976,-0.00411641375496435,0.004251529575875829,0.5686274509803921,0.5137254901960784,0.42745098039215684
0.0018704274489437542,-0.0034805581171403984,0.0004641885661994991,0.48627450980392156,0.5333333333333333,0.5647058823529412
0.002634236352770779,-0.0030594123201621946,-0.002154942921893691,0.35294117647058826,0.3137254901960784,0.43137254901960786
0.0026325147752380863,-0.003074744812830299,0.0045382665032509635,0.8549019607843137,0.7490196078431373,0.6784313725490196
0.0014151396869668826,-0.0036949980120407067,0.004043371724936976,0.36470588235294116,0.2549019607843137,0.27058823529411763
0.0010703735973730457,-0.0038276778069296943,0.0013374025007967777,0.03137254901960784,0.23529411764705882,0.2
0.0007609946923190032,-0.004052105166334967,0.0030894521761278904,0.16862745098039217,0.10196078431372549,0.1450980392156863
0.0014294316850993552,-0.003561044970696772,0.0001469138217991919,0.33725490196078434,0.43137254901960786,0.43137254901960786
0.0016657604426650843,-0.0035854249501342736,0.0033884737890490495,0.6784313725490196,0.6549019607843137,0.7254901960784313
0.0018734250521010593,-0.0034310620036730934,0.0025117296059201733,0.7803921568627451,0.7725490196078432,0.6431372549019608
0.00024256965713845754,-0.00421023565333082,0.003126164762354646,0.2784313725490196,0.4117647058823529,0.403921568627451
0.0019651401394520634,-0.003432865766293166,-0.00038057076428540227,0.7568627450980392,0.6352941176470588,0.4980392156862745
0.0013912627911019774,-0.0036073062219464437,0.005411251743942635,0.5568627450980392,0.5294117647058824,0.5333333333333333
-0.003001200940163154,-0.005988143392563223,0.008361186710088961,0.6470588235294118,0.7058823529411765,0.7294117647058823
0.0012824769665301526,-0.0038001366300902894,0.0028576659646672616,1.0,0.9372549019607843,0.803921568627451
0.0007945113384151234,-0.003999037701651209,0.00456273031240786,0.6823529411764706,0.6431372549019608,0.6627450980392157
0.0009955395913413662,-0.003867835482352494,0.0016322170008896259,0.17254901960784313,0.23921568627450981,0.26666666666666666
0.0019216837840713653,-0.003442071480047015,0.0036201969129131457,0.8392156862745098,0.7686274509803922,0.615686274509804
-0.0006562702902246291,-0.004787615680625701,0.00642137502172459,0.6509803921568628,0.6352941176470588,0.6784313725490196
0.0016273200038815349,-0.0035799657155734313,0.004119656907178519,0.4588235294117647,0.4196078431372549,0.3568627450980392
0.0017435993394398343,-0.0035212349288107365,0.00420058699142414,0.5137254901960784,0.4627450980392157,0.403921568627451
0.0018496209965169542,-0.003453884680706582,5.26401695270046e-05,0.12549019607843137,0.09411764705882353,0.2549019607843137
0.0015513867159643263,-0.0036601997990983477,0.001100460858844637,0.7411764705882353,0.6431372549019608,0.49411764705882355
0.0023278416893678256,-0.0032604267974615055,0.0032911560482414073,1.0,0.996078431372549,0.9803921568627451
6.239771848653208e-05,-0.004330878664401177,0.0037750039726492765,0.803921568627451,0.8666666666666667,0.8588235294117647
0.0011311678769140518,-0.0037342477232683922,0.0023013426114787466,0.5490196078431373,0.592156862745098,0.5843137254901961
-0.007013242483198363,-0.008273911596330343,0.01582137785005337,0.7450980392156863,0.6666666666666666,0.5607843137254902
0.00210457880857222,-0.0033348565579860204,0.0006550193683889486,0.6862745098039216,0.6039215686274509,0.5058823529411764
0.0019625903312255706,-0.003434005475401297,-0.00036027480573519834,0.6470588235294118,0.5333333333333333,0.396078431372549
0.0019269752400779374,-0.0034291996367659203,0.0042462029893119,0.6745098039215687,0.5725490196078431,0.4588235294117647
0.0011065434423512637,-0.003845576555944332,0.0045676851767323815,0.5882352941176471,0.5686274509803921,0.45098039215686275
0.0025051218222437196,-0.003127456552806017,-0.00013767312539803863,0.7764705882352941,0.7176470588235294,0.792156862745098
0.001009849116601315,-0.003918762868072694,0.00453121585844062,0.6078431372549019,0.5294117647058824,0.4235294117647059
0.0019259910804320113,-0.0034401790674485106,0.0035942833565499616,0.8196078431372549,0.7411764705882353,0.5882352941176471
0.0011550025295850792,-0.0038600491879537007,0.002576431181201966,0.23529411764705882,0.12941176470588237,0.23921568627450981
-0.00035976397481205804,-0.004667291586358635,0.005851887733765692,0.7333333333333333,0.6549019607843137,0.6549019607843137
0.0011349936536653403,-0.0038503626263147062,0.004666022525175392,0.9490196078431372,0.9098039215686274,0.8235294117647058
0.0019511329237181683,-0.0034360152180483907,-0.00038425135766838103,0.6705882352941176,0.5607843137254902,0.41568627450980394
0.0004324246039066053,-0.0039046671503719537,0.001804457192956291,0.2980392156862745,0.27058823529411763,0.23137254901960785
0.0017070519529000512,-0.0035789675244689025,0.00063999865691334,0.6470588235294118,0.5333333333333333,0.396078431372549
0.0018356698594548906,-0.003365285532317918,0.004786702666049283,0.30980392156862746,0.24705882352941178,0.2549019607843137
0.0014623567976960496,-0.003659702003229113,0.003945649291516123,0.7215686274509804,0.6588235294117647,0.611764705882353
0.0019297715152170865,-0.0034396552047485686,0.003495776547904709,0.6039215686274509,0.5372549019607843,0.39215686274509803
0.0010353973965060179,-0.003857893302790354,0.004750687341379763,0.5843137254901961,0.5607843137254902,0.6941176470588235
0.0017791712892680724,-0.003519865273986052,0.0006870262710642238,0.7450980392156863,0.6941176470588235,0.5647058823529412
0.001417909127057425,-0.0036887331289019993,0.0010712547296990596,0.4823529411764706,0.5019607843137255,0.5137254901960784
0.0009143848343601871,-0.0036976314565901414,0.0011157510749193703,0.7411764705882353,0.803921568627451,0.792156862745098
0.002996964908314576,-0.0028099865784381624,-0.004567536775556291,0.47843137254901963,0.42745098039215684,0.4745098039215686
0.0015907490506353091,-0.0035586648407842044,0.003601691616710927,0.40784313725490196,0.34901960784313724,0.45098039215686275
0.00110044277599413,-0.003853934598729069,0.00458162043150611,0.9921568627450981,0.9803921568627451,0.8941176470588236
0.0012569409688485736,-0.003854775836878849,0.006717229585845341,0.996078431372549,1.0,0.9882352941176471
0.0017800739659963438,-0.003528215561778126,0.0014576750720849555,0.21568627450980393,0.11764705882352941,0.2
0.001373348646915264,-0.0036732266410651492,0.004288821029126021,0.1450980392156863,0.09803921568627451,0.11764705882352941
0.001422615455060985,-0.003732578443914785,0.006503850550070944,1.0,0.9921568627450981,0.9725490196078431
0.0012589525264007537,-0.003675860919774598,0.0016559825344385686,0.592156862745098,0.6941176470588235,0.7254901960784313
0.002075996671028639,-0.003344880732759526,0.0030590654571869005,0.25882352941176473,0.18823529411764706,0.1411764705882353
0.001925849696312113,-0.003452064213209329,0.00015154818464898257,0.5882352941176471,0.6549019607843137,0.6901960784313725
0.002478777072735243,-0.003151125214868875,0.00295570930989918,0.8313725490196079,0.6901960784313725,0.5372549019607843
0.0020359523180695344,-0.0033916694064230674,0.0019882963064208276,0.16862745098039217,0.12549019607843137,0.1803921568627451
0.0019335129557017387,-0.003425147626172568,0.004261870069098056,0.5607843137254902,0.4392156862745098,0.32941176470588235
0.001925201121431324,-0.003452840340039337,0.00018786426384016956,0.34901960784313724,0.3607843137254902,0.45098039215686275
0.0017340561238134748,-0.0035108471835709446,0.00029279131189156036,0.30980392156862746,0.3137254901960784,0.37254901960784315
0.0009322397094429931,-0.003932815972800833,0.004081628168228719,0.30196078431372547,0.24705882352941178,0.3137254901960784
0.0012900077245159446,-0.0036155922578538905,0.0036593103996608567,0.7803921568627451,0.8431372549019608,0.7843137254901961
0.0009482972805372899,-0.003945637214576563,0.0020226507424245576,0.23921568627450981,0.2980392156862745,0.30196078431372547
-0.0001262196482078133,-0.004537711651479948,0.005539869934556732,0.8784313725490196,0.792156862745098,0.6588235294117647
0.0009180382324784368,-0.0036455125620723245,0.001096679980103478,0.43137254901960786,0.40784313725490196,0.3607843137254902
0.002588632596593912,-0.0030826626325607073,0.0044654623570005774,1.0,0.8705882352941177,0.7529411764705882
-0.0006127991483785323,-0.004778392265602366,0.006905099821466931,0.8941176470588236,0.8588235294117647,0.788235294117647
0.0006704104276729231,-0.004114376421507447,0.0042042477328755705,0.5882352941176471,0.5411764705882353,0.5803921568627451
0.00203783939677395,-0.0033848958170679456,0.0035224229734533144,0.8980392156862745,0.8156862745098039,0.6470588235294118
0.0013098624346477906,-0.0037555222832936714,0.0034058429593304064,0.2901960784313726,0.17254901960784313,0.1803921568627451
0.00042541529540146946,-0.0042309198557782075,0.004564004052798624,0.5333333333333333,0.47058823529411764,0.4235294117647059
0.0013206313158873769,-0.003742231630134224,0.003729309310144583,0.2980392156862745,0.25098039215686274,0.34901960784313724
0.0019027329194131705,-0.0034361402371011983,0.0029565459137229407,0.7686274509803922,0.7254901960784313,0.6
0.001034350421952293,-0.0039020989773872424,0.0020664880306834506,0.5764705882352941,0.6235294117647059,0.6313725490196078
0.00168268563779877,-0.003542690301228245,0.0003553713064145532,0.49411764705882355,0.5254901960784314,0.4980392156862745
0.0019097208216298813,-0.0034475992494570487,0.0036324875591919434,0.32941176470588235,0.2235294117647059,0.10196078431372549
0.0010551856841914552,-0.0038088093881308593,0.0024258793603684848,0.09019607843137255,0.32941176470588235,0.29411764705882354
0.0009627845498316704,-0.003885506457983812,0.0016849959546924819,0.2196078431372549,0.3333333333333333,0.32941176470588235
0.0011375277173036383,-0.0038462497194583683,0.001988453002750137,0.4392156862745098,0.4823529411764706,0.47843137254901963
0.0018443291106098724,-0.0035540196345498275,0.003385051837196748,0.5882352941176471,0.5058823529411764,0.44313725490196076
0.001961951382781717,-0.0034323807035850076,0.0022823576445025204,0.16470588235294117,0.12156862745098039,0.17647058823529413
0.0019534210261241036,-0.003435580047188796,-0.0003784243224153751,0.7372549019607844,0.6274509803921569,0.4823529411764706
0.0013278015671735074,-0.003747031493851731,0.0033262375131435564,0.6431372549019608,0.5450980392156862,0.5294117647058824
0.0019226464000459984,-0.0034500207332462257,-0.00016645312105507864,0.6980392156862745,0.6627450980392157,0.592156862745098
-0.000966395310202376,-0.00475084363092776,0.007490779315993505,0.6235294117647059,0.6352941176470588,0.5764705882352941
0.00018376031134807353,-0.004220131484498222,0.0037093686363905637,0.35294117647058826,0.4235294117647059,0.4117647058823529
0.0011354341635046617,-0.0038415493192249122,0.0013143443567923566,0.5411764705882353,0.5882352941176471,0.5686274509803921
0.001894114334996278,-0.003467190183222784,0.00036977266360872525,0.48627450980392156,0.5333333333333333,0.5647058823529412
0.0019501178745066447,-0.003437656371115452,0.0021665911675978196,0.43137254901960786,0.3686274509803922,0.43529411764705883
0.0025771279530926745,-0.0030884150825290437,0.004408211621755612,1.0,0.9921568627450981,0.8509803921568627
0.0002665958864448049,-0.004301999796011773,0.0039952094394394445,0.5607843137254902,0.47058823529411764,0.43529411764705883
0.0023555597605795387,-0.0031759024234719966,-0.0028057558473047646,0.7843137254901961,0.7294117647058823,0.7137254901960784
0.0014539881689811687,-0.003665062693529965,0.0037810970653424734,0.5215686274509804,0.4627450980392157,0.3333333333333333
0.0019897057904087025,-0.0034123845475887986,-0.0006780177702086874,0.8705882352941177,0.7843137254901961,0.6784313725490196
0.00037275250794517964,-0.004177413431638659,0.0030115949448010593,0.09019607843137255,0.32941176470588235,0.29411764705882354
0.0011465784358547643,-0.003760602037500461,0.0032191010071935663,0.3333333333333333,0.4235294117647059,0.40784313725490196
-0.0019842072825263435,-0.005416436326240161,0.007023533785201347,0.3176470588235294,0.40784313725490196,0.396078431372549
0.0010226246127684087,-0.0037857608070177183,0.0025256848768671564,0.21176470588235294,0.2549019607843137,0.27058823529411763
0.00040281973297612094,-0.003733507456826275,0.0011921883693898495,0.42745098039215684,0.3764705882352941,0.35294117647058826
0.0013081895671573393,-0.0037604098884731836,0.0013309575103409787,0.5176470588235295,0.6313725490196078,0.6274509803921569
0.002160395718130833,-0.0033198573986386684,0.0037545637758749084,0.996078431372549,0.8627450980392157,0.7450980392156863
-0.007909598487974803,-0.008764014083717199,0.01692560625911606,0.6039215686274509,0.592156862745098,0.7686274509803922
-0.0004135834992601925,-0.004673025938394763,0.005408775141387292,0.6,0.5254901960784314,0.4627450980392157
0.0017753933224653065,-0.003469560046731252,-0.0004720294918996852,0.2823529411764706,0.36470588235294116,0.35294117647058826
0.0009579370986913064,-0.003934448326597565,0.00463327160236677,0.23921568627450981,0.17254901960784313,0.11372549019607843
-0.0028679369461807507,-0.005897156417255796,0.008235789818606976,0.3607843137254902,0.43137254901960786,0.4196078431372549
0.0029167883806446742,-0.002930258557146329,0.004829212001050819,1.0,0.9882352941176471,0.9529411764705882
0.0014878974637752057,-0.0036718394105688607,0.0025685358494136022,0.2235294117647059,0.19215686274509805,0.3254901960784314
0.0010774100413465555,-0.0037463781820378313,0.002633390531144849,0.5490196078431373,0.6352941176470588,0.6078431372549019
-0.0003588061466953732,-0.004642237791787726,0.005146937685544012,0.396078431372549,0.2784313725490196,0.26666666666666666
0.0014329113529088944,-0.0036936748207968724,0.0029682701478885853,0.6274509803921569,0.5490196078431373,0.6
0.002639755944747848,-0.0030547613864657496,-0.002080476178211584,0.5529411764705883,0.6078431372549019,0.5882352941176471
0.0012947258126524974,-0.0038522897449606098,0.004151334576474471,0.9137254901960784,0.8235294117647058,0.7803921568627451
0.0008848479928180614,-0.003944013233873799,0.0028790581512407195,0.0,0.13725490196078433,0.11372549019607843
-0.00805228760666407,-0.008852362183678209,0.017056379203435036,0.33725490196078434,0.2823529411764706,0.18823529411764706
0.0016726028058696837,-0.003563952288441463,0.0044857128623317635,0.27058823529411763,0.19607843137254902,0.11372549019607843
0.0016570403162042007,-0.003559701407206487,0.0003570186022293457,0.43137254901960786,0.49019607843137253,0.4588235294117647
0.0016436084080429794,-0.0035713392063172382,0.0039914059935626835,0.25098039215686274,0.19215686274509805,0.13333333333333333
0.0022252709222951995,-0.003286259482860807,0.004661885526711326,0.8627450980392157,0.7215686274509804,0.5882352941176471
0.0011033445209942018,-0.0038692792446694876,0.004752468527476888,0.9372549019607843,0.8588235294117647,0.7333333333333333
0.0014493966896400614,-0.0036695975946972144,0.0040789868016931465,0.49019607843137253,0.4117647058823529,0.4627450980392157
0.002469440631817149,-0.0031801905675789255,0.002584760374364606,1.0,1.0,0.9803921568627451
0.0007471708619073062,-0.004019814879324419,0.003513281012818241,0.03529411764705882,0.13725490196078433,0.10980392156862745
0.0012888899430180832,-0.0036155044936359254,0.003652348425081617,0.7843137254901961,0.8470588235294118,0.788235294117647
0.001530175225931397,-0.003662944252354506,0.0017370248370916373,0.24705882352941178,0.16862745098039217,0.19607843137254902
0.0015130764493804434,-0.0036725400462616574,0.0018411167262918453,0.25882352941176473,0.17647058823529413,0.19215686274509805
-0.0006389709596945029,-0.004807539397679657,0.006676091506101022,0.20784313725490197,0.18823529411764706,0.16862745098039217
-0.0004415482513680888,-0.004700917346343669,0.005518948259145685,0.5843137254901961,0.5333333333333333,0.5607843137254902
0.002103107132106915,-0.0033229669021417997,0.002325297893270758,0.788235294117647,0.7098039215686275,0.7372549019607844
0.001899280286265038,-0.0034636600558519332,0.0002762798984788645,0.35294117647058826,0.39215686274509803,0.45098039215686275
0.001860304987931662,-0.003447084439972269,-1.4624667983633943e-05,0.12549019607843137,0.09019607843137255,0.17254901960784313
0.0003107512474590829,-0.004278730626692874,0.003885471816743616,0.5843137254901961,0.4980392156862745,0.44313725490196076
0.0009152607728189974,-0.003939869691255409,0.0039455408982739,0.7294117647058823,0.6705882352941176,0.611764705882353
0.0015967007253328395,-0.0035958444235286244,0.0011962351725837413,0.1450980392156863,0.09803921568627451,0.19607843137254902
-0.00013038406569132162,-0.004517152971377824,0.0047378617737084934,0.5686274509803921,0.4666666666666667,0.48627450980392156
0.001434821022079081,-0.0037587343892363572,0.006844956888516297,0.49411764705882355,0.3568627450980392,0.4549019607843137
0.001724449990047515,-0.003555694410910144,0.001748621726995045,0.3764705882352941,0.3803921568627451,0.47058823529411764
0.001788142421847571,-0.0035267392243696276,0.0024952662839306514,0.5333333333333333,0.5019607843137255,0.6
0.0006475507686731229,-0.004125712662680416,0.004211364438185701,0.3137254901960784,0.19607843137254902,0.20392156862745098
0.0018984248325969954,-0.0034503931084055393,0.00010333713271533386,0.6784313725490196,0.615686274509804,0.6274509803921569
0.001879496241675506,-0.0034232948302185037,0.002529112314931886,0.592156862745098,0.5686274509803921,0.48627450980392156
0.0012781425077666578,-0.003749230377773016,0.004261560450251706,0.6313725490196078,0.615686274509804,0.48627450980392156
0.000879003456716527,-0.003957741372353096,0.00391787540419522,0.32941176470588235,0.3058823529411765,0.34901960784313724
0.0017691214108061164,-0.0035117905506587086,0.0017495638481843055,0.49411764705882355,0.39215686274509803,0.40784313725490196
0.0009259129951712223,-0.0036498642961532027,0.0011335712063999207,0.25882352941176473,0.2549019607843137,0.2235294117647059
0.002350740111708227,-0.00324139408988698,0.0046162892080407174,0.996078431372549,1.0,0.9882352941176471
0.0015637401591717102,-0.003629242177072234,0.0036164264652151384,0.6901960784313725,0.6313725490196078,0.49411764705882355
0.0012436802397019615,-0.003826636368028544,0.0027194783861530796,0.5647058823529412,0.592156862745098,0.6549019607843137
0.002069444854967739,-0.003333530494258477,0.0026839557004104263,0.4235294117647059,0.34509803921568627,0.34509803921568627
0.0015870648641308214,-0.0036394294775392378,0.0016263298039965136,0.48627450980392156,0.5490196078431373,0.5372549019607843
0.0018209097288540337,-0.0034715859122743764,0.0010864035815435636,0.7137254901960784,0.6431372549019608,0.6235294117647059
0.001639870111311455,-0.003619181598183654,0.006718786962328443,1.0,1.0,0.9764705882352941
0.0014573463928561482,-0.0036645867188860185,0.004029568799993908,0.25882352941176473,0.14901960784313725,0.11764705882352941
0.0026932136618461793,-0.0030319789035300844,-0.0011054284108558726,0.14901960784313725,0.10980392156862745,0.14901960784313725
0.0017509390361756566,-0.00354227806387038,0.0012057652950936604,0.11372549019607843,0.11764705882352941,0.17647058823529413
0.002160977838175781,-0.0033594088344040818,0.005850395317125912,1.0,0.9921568627450981,0.9725490196078431
2.1942114472849895e-05,-0.00433527644356941,0.0030604042059945,0.38823529411764707,0.4588235294117647,0.45098039215686275
0.00172049145382119,-0.00356478722292923,0.003835099690631188,0.7529411764705882,0.615686274509804,0.4
0.00295530081815669,-0.002916358582242649,0.00016977189773078198,0.8823529411764706,0.7176470588235294,0.6862745098039216
0.0017433586170655683,-0.0035477531963828634,0.0022795136907641047,0.5686274509803921,0.6431372549019608,0.6196078431372549
0.0016438799737946254,-0.0036209108476584788,0.0057600378769577945,0.8666666666666667,0.7686274509803922,0.7176470588235294
0.001734781382612243,-0.003573854437088038,0.0064779093512599036,1.0,0.9921568627450981,0.9725490196078431
0.0029546825554054175,-0.0029148420036964368,0.00019907399212548417,0.8784313725490196,0.7411764705882353,0.7058823529411765
0.001314930480866161,-0.0037825577088917003,0.0027927009325570003,1.0,0.9764705882352941,0.8901960784313725
0.0019274402815155345,-0.0034513656688801827,0.0001431289130302542,0.5803921568627451,0.6235294117647059,0.6745098039215687
0.001185477403266461,-0.00367073808565324,0.0025980612601562373,0.24705882352941178,0.3137254901960784,0.2627450980392157
0.0017516878286819085,-0.0035321157767394325,0.0006637069162603738,0.4196078431372549,0.3254901960784314,0.5333333333333333
0.0012238373781790857,-0.003734734531861107,-0.0015760156158436647,0.12156862745098039,0.08235294117647059,0.12156862745098039
0.0015927459464732292,-0.003576804549299077,0.002176887476963834,0.615686274509804,0.6509803921568628,0.6470588235294118
0.0015758536151387996,-0.0036339218055677414,0.001607922497253965,0.7333333333333333,0.6509803921568628,0.5529411764705883
0.002521625253370423,-0.0031436347972233396,0.004154541838687534,0.9019607843137255,0.8274509803921568,0.796078431372549
0.0016462963208110587,-0.003583358365002214,0.0024389908812676715,0.8745098039215686,0.8431372549019608,0.8156862745098039
0.0017595379076451088,-0.0035281247274516667,-0.0005153520285216933,0.17647058823529413,0.19607843137254902,0.25882352941176473
0.0017963845759874243,-0.00348188323183237,0.0008991429754327865,0.6470588235294118,0.5764705882352941,0.6274509803921569
0.0029426181003310587,-0.0029201292945995475,0.00035634167148275794,1.0,1.0,0.9725490196078431
0.0022148184083067225,-0.003291289221488143,0.004629305740944082,0.8901960784313725,0.7450980392156863,0.6039215686274509
-0.0018275728196124306,-0.005372861844946098,0.006676248140985861,0.3333333333333333,0.4745098039215686,0.4196078431372549
0.0011791199325732458,-0.0038245338697135015,0.002382301701797877,0.13725490196078433,0.08627450980392157,0.1411764705882353
-0.00037480331418927106,-0.004579376628046205,0.0050771021856648385,0.12549019607843137,0.12549019607843137,0.10196078431372549
0.0019479212316667173,-0.003439048552787749,0.0021844655089984003,0.41568627450980394,0.3568627450980392,0.4117647058823529
0.0012688606205228012,-0.0037707666689401815,0.003409164702609269,0.6274509803921569,0.5764705882352941,0.47058823529411764
0.001785633577221938,-0.003493537785639449,0.000998513104896914,0.27450980392156865,0.2627450980392157,0.25098039215686274
0.0028658400825726264,-0.002949145528904388,7.845306917492125e-06,0.8313725490196079,0.6862745098039216,0.5450980392156862
0.0015476571100405925,-0.0036929346129341146,0.0067367294483104394,1.0,0.9333333333333333,0.8823529411764706
